ply
format ascii 1.0
element vertex 1255
property float x
property float y
property float z
property uchar red
property uchar green
property uchar blue
end_header
12.270499 -1.441593 3.009389 87 70 52
12.245734 -1.438347 3.125397 88 71 53
12.223414 -1.434823 3.210414 84 65 50
12.297923 -1.429250 3.344902 82 63 46
12.283514 -1.427089 3.402778 79 59 42
12.254741 -1.422772 3.518264 78 57 39
12.235994 -1.420336 3.606250 80 59 40
12.296872 -1.409229 3.707771 86 61 41
12.283651 -1.416503 3.805045 103 75 53
12.295221 -1.379772 -1.371447 127 105 91
12.202152 -1.387247 -1.246870 129 106 90
12.202733 -1.387099 -1.186880 132 106 89
12.208735 -1.388146 -1.098357 119 96 80
12.209859 -1.387836 -0.977727 104 82 68
12.216843 -1.389122 -0.888738 98 79 64
12.219704 -1.389387 -0.798267 96 78 58
12.227930 -1.390828 -0.678291 100 81 64
12.230751 -1.391079 -0.587118 94 77 61
12.237643 -1.392335 -0.496531 96 81 62
12.246796 -1.393998 -0.375120 97 80 62
12.252614 -1.394985 -0.283416 95 79 63
12.255355 -1.395209 -0.190868 103 87 74
12.262151 -1.396434 -0.098615 99 85 72
12.270160 -1.397804 0.025136 116 97 80
12.272842 -1.398009 0.118721 114 95 80
12.279565 -1.399209 0.212237 111 95 80
12.282213 -1.399403 0.306428 117 101 86
12.284844 -1.399591 0.400888 129 110 93
12.289051 -1.399704 0.590634 105 93 79
12.291638 -1.399878 0.685885 111 99 85
12.256491 -1.394872 0.731932 104 92 78
12.292374 -1.399440 0.813248 112 99 83
12.290899 -1.398611 0.908928 113 100 84
12.289416 -1.397780 1.004742 115 102 86
12.287926 -1.396947 1.100691 100 87 71
12.283585 -1.395256 1.228612 96 80 65
12.278067 -1.393431 1.324390 99 83 68
12.272550 -1.391607 1.420167 96 80 64
12.267033 -1.389783 1.515945 92 76 60
12.258516 -1.387223 1.611236 92 77 58
12.253002 -1.385400 1.706963 94 77 59
12.247487 -1.383577 1.802690 99 82 62
12.240135 -1.381146 1.930327 92 74 60
12.230638 -1.378347 2.025114 85 69 54
12.225127 -1.376525 2.120773 89 72 56
12.215642 -1.373730 2.215358 96 77 62
12.210135 -1.371910 2.310951 90 73 59
12.295969 -1.360232 2.433994 90 76 63
12.287401 -1.357672 2.530194 86 72 61
12.273890 -1.353931 2.624614 85 73 61
12.260394 -1.350195 2.718765 85 73 61
12.246914 -1.346465 2.812646 85 71 58
12.233450 -1.342739 2.906258 82 68 55
12.215193 -1.337702 3.030520 82 68 55
12.295287 -1.324022 3.130226 68 54 41
12.277847 -1.319412 3.222816 67 51 38
12.260430 -1.314810 3.315001 69 53 38
12.278321 -1.302401 3.411748 89 62 41
12.285622 -1.325151 3.697968 98 72 49
12.250206 -1.317171 3.707541 101 75 52
12.297618 -1.302954 3.811022 106 80 57
12.239056 -1.288329 0.317585 111 95 80
12.259525 -1.294895 0.414677 123 110 94
12.299950 -1.298255 0.621041 119 107 91
12.297662 -1.298602 2.579982 99 83 67
12.290732 -1.298221 2.607119 97 81 65
12.263011 -1.296698 2.715670 92 77 58
12.296593 -1.282784 2.819938 93 78 59
12.210728 -1.292981 2.903942 87 70 52
12.296476 -1.255831 3.484214 93 66 45
12.235637 -1.214502 3.512196 96 69 48
12.292696 -1.273299 3.699348 100 74 51
12.268581 -1.215017 3.713242 107 77 51
12.256115 -1.222744 3.808965 111 80 52
12.205976 -1.180456 3.525708 98 70 46
12.266007 -1.108665 3.738147 46 28 8
12.263128 -1.106017 3.810170 52 31 10
12.291384 -1.109284 4.715899 77 58 44
12.249900 -1.079781 3.758985 79 61 48
12.201251 -1.022661 3.856530 78 62 49
12.236750 -1.006481 3.914133 73 57 44
12.279532 -1.048060 4.013321 78 65 49
12.284323 -1.037195 4.153792 78 60 46
12.297129 -1.020498 4.233670 77 61 46
12.288433 -1.001394 4.334433 77 61 45
12.299420 -1.010499 4.450104 83 64 49
12.242578 -1.009575 4.508085 93 70 49
12.275491 -1.009689 4.669376 107 80 53
12.277073 -1.018938 4.727086 100 74 51
12.244107 -0.985155 3.987145 73 57 44
12.213365 -0.956595 4.068452 75 56 42
12.263963 -0.998717 4.351010 78 61 45
12.297496 -0.961410 4.489764 101 75 50
12.292724 -0.912892 4.599489 104 77 50
12.262528 -0.909112 4.611836 103 75 53
12.292384 -0.917037 4.714988 102 75 54
12.276276 -0.841474 4.366780 93 67 44
12.280020 -0.816372 4.444885 94 67 46
12.210474 -0.807666 4.502409 95 68 47
12.291217 -0.860628 4.675002 100 74 51
12.294885 -0.808430 4.756850 99 73 50
12.276910 -0.789479 4.518527 93 66 45
12.228956 -0.756910 4.633762 94 67 46
12.291572 -0.780839 4.793586 97 71 48
12.253979 -0.721647 4.880305 101 71 49
12.298955 -0.666095 4.778638 64 48 35
12.287218 -0.688972 4.807000 58 45 35
12.284976 -0.654022 4.952988 62 50 38
12.284029 -0.609387 5.068365 60 46 35
12.279791 -0.606052 5.139157 55 43 31
12.295710 -0.621898 5.256690 56 43 34
12.296176 -0.612425 5.361381 55 41 30
12.212629 -0.613541 5.407458 60 45 32
12.281054 -0.601565 5.553630 66 47 32
12.283795 -0.614624 5.661658 65 44 30
12.282080 -0.588852 5.215589 72 53 38
12.299617 -0.578014 5.352025 69 50 36
12.287310 -0.560678 5.459061 65 46 32
12.285609 -0.513347 5.538287 64 45 30
12.256747 -0.516824 5.609335 64 45 31
12.294121 -0.435067 5.586367 64 45 30
12.273519 -0.407133 5.602888 64 45 30
12.274436 -0.420335 5.790598 62 43 28
12.222355 -0.419766 5.800271 63 44 29
12.285575 -0.327078 5.656832 64 45 30
12.240134 -0.300470 5.726988 51 33 20
12.298576 -0.378951 5.859080 65 43 29
12.285149 -0.337822 5.961210 60 43 25
12.283610 -0.276009 5.789351 46 32 21
12.265216 -0.276054 5.812879 45 31 20
12.268265 -0.280360 5.914512 46 29 19
12.275289 -0.226671 6.072700 43 30 21
12.272194 -0.207759 6.143888 45 30 19
12.287771 -0.203804 6.268122 50 31 17
12.271951 -0.196044 6.065952 53 37 24
12.273154 -0.121865 6.140084 56 37 23
12.291380 -0.131903 6.298487 54 35 20
12.284376 -0.107002 6.329743 56 34 20
12.214141 -0.092491 6.152012 57 38 24
12.274022 -0.056333 6.399505 60 38 25
12.292644 -0.004445 6.469572 60 40 25
12.294049 -0.008237 6.562692 55 36 21
12.261681 -0.003269 6.622460 54 35 21
12.283577 0.077127 6.592650 58 39 24
12.296146 0.063812 6.685156 53 34 19
12.270755 0.088498 6.729552 56 37 20
12.285398 0.084888 6.838086 55 34 17
12.274350 0.114034 6.777923 56 37 22
12.292777 0.167333 6.896211 46 27 10
12.298404 0.194887 6.951178 48 29 14
12.234624 0.156705 7.038509 61 38 22
12.237252 0.182957 7.130252 57 36 19
12.276820 0.251337 7.058439 52 33 19
12.244875 0.279786 7.103315 53 34 19
12.234674 0.237053 7.262687 48 29 12
12.232067 0.289485 7.493579 53 36 18
12.290993 0.366413 7.373946 49 32 14
12.284037 0.393588 7.402742 52 33 16
12.262085 0.383169 7.514797 50 31 16
12.280382 0.476096 7.477111 59 41 19
12.293452 0.450646 7.583171 56 39 21
12.287719 0.494616 7.662894 57 39 19
12.274514 0.504992 7.509705 58 39 22
12.203000 0.598247 7.631130 56 39 21
12.291885 0.564798 7.791136 56 39 21
12.287492 0.590054 7.851162 58 39 24
12.283638 0.646623 7.761993 42 27 11
12.284880 0.694048 7.853190 47 31 16
12.279761 0.620222 7.982990 50 31 14
12.280288 0.650879 8.097002 49 31 9
12.288557 0.678454 8.146467 49 31 9
12.252793 0.689647 8.208482 43 29 16
12.288622 0.744308 7.952676 50 34 19
12.289281 0.796961 8.053085 53 35 21
12.284245 0.704947 8.177210 50 33 15
12.272242 0.762489 8.278492 55 39 23
12.280072 0.792731 8.331546 55 39 23
12.246303 0.822507 8.098144 55 39 23
12.286806 0.852040 8.154418 54 38 22
12.278984 0.881450 8.217086 58 39 24
12.288923 0.823929 8.387345 58 37 23
12.273823 0.856065 8.451409 60 41 26
12.287477 0.890025 8.518335 61 42 27
12.298699 0.912837 8.283377 58 42 26
12.291114 0.944280 8.350715 56 40 24
12.285988 0.977334 8.424566 55 40 25
12.298090 0.924301 8.581466 58 39 24
12.279054 0.958651 8.645564 58 39 24
12.287672 0.994423 8.708627 56 41 22
12.255483 0.978984 10.094487 37 27 15
12.278606 0.998679 10.127839 36 28 17
12.281370 1.011727 8.502175 58 39 24
12.283527 1.087418 8.686225 50 34 21
12.297569 1.031505 8.775354 58 41 23
12.276130 1.068500 8.842281 56 37 22
12.225165 1.042068 9.998591 39 29 17
12.290453 1.084116 10.096715 36 28 15
12.203510 1.099939 10.173756 37 29 10
12.272663 1.080550 10.219655 39 30 12
12.270802 1.123998 8.760371 45 31 18
12.292272 1.164225 8.845038 49 36 20
12.299345 1.149240 8.991352 49 33 20
12.279486 1.190541 9.069496 50 34 19
12.217730 1.155709 9.680094 27 19 3
12.286971 1.186012 9.766024 36 28 9
12.261616 1.199721 9.819597 35 27 8
12.227184 1.135258 10.099976 33 24 9
12.293771 1.181357 10.132251 40 31 15
12.277481 1.199163 10.259370 48 37 19
12.288922 1.242777 8.992778 49 33 18
12.273746 1.284098 9.074460 46 30 15
12.241118 1.282522 9.199903 48 35 21
12.236556 1.234862 9.893515 34 27 11
12.288988 1.270473 9.996884 39 31 12
12.286562 1.287631 10.058435 38 30 11
12.236023 1.204563 10.126616 42 33 18
12.219601 1.281108 10.257440 48 37 19
12.283238 1.284990 10.315495 42 34 15
12.293963 1.329523 9.166367 50 34 21
12.231071 1.320231 9.283566 44 31 14
12.292454 1.389193 10.165044 47 34 15
12.232195 1.338465 10.276392 50 39 21
12.299118 1.366035 10.386033 48 37 17
12.285385 1.393115 10.410554 47 36 18
12.285947 1.442997 10.199763 46 33 14
12.276763 1.497413 10.230589 36 26 8
12.293426 1.407033 10.389752 43 31 15
12.288839 1.449407 10.463997 47 36 16
12.282162 1.485394 10.507755 46 35 17
12.241340 1.499795 11.096647 27 18 3
12.232044 1.523222 10.251590 40 27 10
12.281080 1.533015 10.395812 31 22 7
12.291017 1.577959 10.445739 37 28 11
12.218919 1.512326 10.549860 44 31 12
12.287723 1.534853 10.681260 33 24 7
12.299618 1.585776 10.791306 38 30 9
12.285837 1.582090 11.084698 29 23 5
12.280121 1.593801 11.111934 37 29 10
12.288565 1.638120 10.294923 52 39 22
12.296750 1.667203 10.307939 51 38 21
12.287808 1.623806 10.671496 37 31 7
12.272787 1.667970 10.762140 42 31 11
12.276089 1.637790 10.894984 43 32 14
12.281768 1.665540 10.954313 46 34 13
12.290388 1.694277 11.020167 47 36 15
12.276007 1.673493 11.193600 41 33 14
12.298768 1.698059 11.230773 42 34 13
12.281290 1.706735 10.264013 51 38 21
12.277188 1.724060 10.885871 45 32 15
12.282296 1.778568 10.988711 46 33 14
12.296623 1.723610 11.083257 48 35 16
12.275972 1.752777 11.154108 47 36 16
12.283762 1.783968 11.223825 48 35 18
12.281461 1.795909 11.383274 46 35 15
12.296471 1.834699 11.060617 48 35 19
12.241652 1.861676 11.118717 52 39 20
12.290682 1.815950 11.293567 49 36 18
12.297222 1.848794 11.364266 50 37 17
12.273110 1.881249 11.439303 50 39 17
12.237182 1.836564 11.536414 49 34 13
12.286721 1.887500 11.991218 24 20 8
12.283412 1.897539 12.016494 42 29 12
12.289509 1.883848 12.132342 40 23 5
12.284381 1.979730 11.183808 32 25 9
12.249415 1.926182 11.297598 38 26 10
12.284454 1.957469 11.359476 35 26 11
12.288007 1.987962 11.417322 40 27 11
12.282688 1.916575 11.520381 56 41 20
12.233779 1.986910 11.686149 42 34 15
12.229269 1.999302 11.850917 33 26 10
12.291599 1.979964 11.978979 35 24 6
12.276121 1.990185 12.038182 28 22 10
12.248849 1.964205 12.100110 31 21 11
12.291341 2.019199 11.476096 40 31 16
12.293294 2.083239 11.588877 42 33 18
12.286955 2.037640 11.676003 26 16 4
12.204758 2.022951 11.765576 41 32 17
12.285540 2.099792 11.896581 40 28 14
12.218947 2.080778 11.996255 38 29 12
12.280460 2.084359 12.006319 39 30 13
12.203603 2.062918 12.102246 31 22 5
12.206694 2.120754 11.896359 43 31 17
12.221180 2.107352 11.999752 38 29 12
12.287090 2.192563 12.067027 42 30 14
12.289343 2.198463 12.105760 37 25 9
12.204318 2.199618 12.224959 40 29 11
12.285698 2.226667 11.981740 41 29 13
12.274199 2.219672 12.095232 42 31 13
12.237633 2.246054 12.133867 45 35 16
12.281105 2.215895 12.271141 38 26 10
12.294425 2.245059 12.381300 42 31 13
12.292004 2.259824 12.441842 44 31 14
12.282346 2.291326 12.562246 47 35 14
12.273728 2.334075 12.099932 43 31 15
12.279010 2.390519 12.156980 38 27 9
12.282776 2.382076 12.213265 41 30 12
12.289032 2.383361 12.368019 43 30 13
12.295902 2.325582 12.690109 46 33 16
12.292235 2.343123 12.759624 36 28 9
12.299751 2.381503 12.889779 35 28 10
12.204196 2.399614 12.941494 39 28 10
12.282383 2.499765 12.090744 41 29 13
12.295840 2.420116 12.185963 43 31 15
12.275377 2.477888 12.250315 44 33 15
12.219038 2.437041 12.300978 46 38 18
12.298681 2.406505 12.464114 42 29 10
12.290073 2.430466 12.534701 45 32 13
12.281895 2.481139 12.699564 46 35 17
12.256613 2.480680 12.703839 46 35 14
12.225962 2.400643 12.867380 32 23 8
12.264580 2.422548 12.999903 47 36 18
12.293122 2.468693 13.091919 49 38 18
12.291030 2.492209 13.133527 48 37 15
12.288795 2.550229 12.097072 42 31 13
12.222366 2.574679 12.117991 44 32 16
12.291765 2.507868 12.762744 46 35 17
12.277002 2.534972 12.834087 47 36 16
12.296892 2.592461 12.969229 49 34 11
12.247274 2.551315 13.097616 42 31 11
12.274463 2.540677 13.197720 48 36 14
12.287069 2.591560 13.267776 47 34 15
12.277873 2.651716 13.094450 51 36 17
12.284446 2.683050 13.161850 51 36 17
12.276507 2.617068 13.297983 48 35 16
12.265584 2.642911 13.328198 48 35 16
12.290219 2.715153 13.229318 51 36 17
12.272685 2.781513 13.374023 51 36 20
12.237630 2.787838 13.745832 22 15 5
12.278480 2.870608 13.191553 45 37 18
12.277524 2.816264 13.445487 49 36 20
12.286960 2.888661 13.593290 47 35 21
12.290908 2.822546 13.677240 34 26 8
12.280671 2.892768 13.778031 36 27 10
12.286701 2.897254 13.851629 34 24 12
12.214219 2.886133 13.907560 33 24 9
12.287645 2.908077 13.269036 46 35 17
12.201067 2.942892 13.347346 42 33 16
12.291011 2.967136 13.875963 40 31 16
12.288900 2.992729 13.914636 39 30 13
12.203533 3.028445 13.796814 32 22 8
12.260740 3.062692 13.864765 31 21 8
12.283330 3.045184 13.992155 39 30 15
12.257933 3.099537 14.085298 36 26 14
12.267448 3.116535 13.997075 28 19 5
12.284779 3.100726 14.084534 36 26 14
12.294314 3.160169 14.194593 39 30 15
12.273824 3.190194 14.256636 37 27 15
12.266388 3.197833 14.376402 39 30 15
12.295260 3.216994 14.264940 30 18 6
12.294817 3.256856 14.395803 31 22 7
12.243950 3.287980 14.463184 38 29 14
12.275722 3.295124 14.592207 32 23 8
12.274532 3.297661 14.612866 34 24 12
12.298136 3.298692 14.731862 27 20 9
12.281045 3.310537 14.486379 30 20 8
12.221583 3.321494 14.532493 38 28 16
12.269654 3.358719 14.687391 38 28 16
12.297522 3.392936 14.738398 40 30 20
12.279639 3.406799 14.694972 33 23 13
12.267635 3.454284 14.794195 39 30 17
12.285579 3.487522 14.827690 40 29 17
12.266046 3.599876 14.735496 34 24 12
12.287874 3.553132 14.889563 40 30 20
12.240752 3.591790 14.907370 37 27 17
12.244512 3.623473 14.740562 34 24 12
12.289854 3.607812 14.897144 36 26 16
12.255173 3.637669 14.934292 35 25 13
12.279407 3.784008 14.984834 38 40 29
12.247178 3.755507 16.788450 25 20 24
12.216056 3.735547 16.872522 29 27 28
12.262464 3.785616 16.998689 11 10 8
12.275178 3.799119 17.098157 37 36 32
12.233005 3.794937 17.138188 9 8 6
12.228490 3.759587 18.998090 65 61 78
12.208395 3.745668 19.086445 73 70 88
12.271966 3.758770 19.175226 78 75 94
12.292364 3.743854 19.292709 79 76 97
12.279772 3.750642 19.368789 80 78 99
12.290420 3.762568 19.484281 85 82 103
12.287290 3.763480 19.584420 89 87 108
12.288486 3.761500 19.697142 97 95 117
12.295100 3.771165 19.785942 99 95 118
12.285711 3.799210 19.893732 102 98 121
12.264898 3.797188 19.900353 103 99 122
12.294990 3.788614 20.073578 69 73 73
12.277580 3.878349 14.981799 37 38 30
12.292031 3.885737 15.024081 42 44 33
12.279141 3.896343 15.188199 44 45 39
12.221468 3.883297 16.906211 25 24 22
12.296700 3.879776 17.085040 44 44 42
12.221238 3.877475 17.102268 43 43 43
12.219705 3.880961 19.281597 97 95 117
12.240535 3.889074 19.315297 94 92 113
12.299517 3.847462 19.480071 100 96 119
12.297302 3.850541 19.592725 100 98 120
12.299778 3.865531 19.679248 102 100 121
12.235204 3.800925 19.891912 105 101 123
12.296380 3.807868 19.998159 105 99 125
12.298701 3.822543 20.092495 107 106 125
12.298423 3.855255 20.139676 108 107 125
12.299833 3.997724 14.977080 51 53 42
12.292213 3.961912 15.020453 42 43 35
12.298191 3.977639 15.166268 44 45 39
12.280340 3.997781 16.990997 38 37 35
12.294886 3.986203 17.080693 53 53 51
12.249966 3.984851 17.102300 52 52 50
12.208174 3.995802 17.203368 29 29 29
12.243726 3.974950 19.583616 101 99 123
12.235888 3.989546 19.616169 103 101 125
12.279178 4.093316 14.984197 21 27 27
12.214060 4.069282 16.890472 41 41 39
12.235717 4.045881 16.923320 40 40 36
12.271496 4.012196 17.089451 57 56 52
12.201773 4.095567 17.173720 44 43 38
12.255746 4.085600 17.201505 38 38 38
12.245216 4.056918 19.638932 95 93 114
12.277315 4.188464 14.981104 27 32 28
12.205225 4.192045 17.175535 49 48 43
12.280392 4.197740 17.200287 46 45 43
12.257812 4.147712 19.669654 80 79 97
12.296645 4.283630 14.971525 51 53 42
12.200111 4.216211 17.165544 49 48 43
12.213978 4.289679 17.232273 50 49 47
12.295972 4.390652 14.935274 37 38 32
12.232527 4.390948 17.141489 53 52 50
12.214608 4.388247 17.229140 50 49 47
12.289590 4.497072 14.959896 31 32 27
12.228551 4.484878 17.132989 49 49 49
12.201994 4.413510 17.252283 48 48 46
12.285427 4.591492 14.953086 61 61 50
12.229100 4.579351 17.131933 42 42 46
12.295869 4.582018 17.216128 41 42 44
12.281265 4.685912 14.946275 32 28 25
12.230895 4.698138 17.132422 30 34 35
12.276715 4.673162 17.222112 33 34 38
12.298302 4.779699 14.933028 26 25 21
12.240254 4.799612 17.188294 34 34 36
12.294952 4.801790 14.927671 40 39 35
12.260040 4.896175 17.176311 32 32 30
12.249567 4.898837 17.201809 32 32 32
12.264970 4.994637 17.182385 30 30 29
12.256054 4.998322 17.210615 29 29 28
12.271552 5.094370 17.191154 28 26 27
12.258618 5.097360 17.212900 28 26 27
12.275205 5.169274 17.195614 28 26 27
12.278658 5.195162 17.200764 28 26 27
12.282285 5.270669 17.205169 26 24 25
12.210237 5.378435 17.259336 26 25 27
12.299424 6.474434 18.611725 44 44 52
12.286217 6.599790 18.697572 52 50 53
12.295433 6.580274 18.713280 51 49 52
12.235859 6.584893 18.803294 55 50 54
12.211757 6.647944 17.700270 66 71 64
12.217100 6.618226 17.803805 65 67 62
12.286938 6.692345 18.430635 57 59 58
12.254710 6.698587 18.506815 59 60 61
12.231297 6.687331 18.602710 59 59 61
12.235804 6.625764 18.704506 54 52 55
12.289747 6.781639 18.158596 65 72 65
12.253796 6.783948 18.216033 68 78 70
12.217242 6.782171 18.316661 66 75 70
12.225051 6.754756 18.413752 63 67 66
12.203648 6.746732 18.509471 62 64 63
12.297174 6.795141 18.798802 21 20 26
12.227642 6.804442 18.213443 71 81 73
12.291721 6.864419 18.511613 64 71 77
12.294150 6.897985 18.751354 66 70 73
12.292912 6.955372 18.664734 77 93 83
12.289259 6.923401 18.700462 71 82 78
12.397299 -1.510037 2.467617 106 88 68
12.392376 -1.507062 2.595717 106 89 71
12.395161 -1.504938 2.654325 100 83 65
12.391428 -1.502295 2.792734 106 85 66
12.395939 -1.500682 2.856818 101 82 65
12.346770 -1.500381 2.985978 98 80 60
12.333854 -1.500948 3.002120 97 79 59
12.399524 -1.548182 3.383218 92 73 56
12.394482 -1.545498 3.444356 89 71 51
12.385502 -1.540582 3.572209 90 69 52
12.398702 -1.538475 3.697031 87 69 49
12.399322 -1.523404 3.794365 90 69 52
12.385086 -1.509331 3.834494 93 71 50
12.380570 -1.423411 -1.477225 126 103 87
12.383517 -1.422991 -1.394652 129 106 90
12.300561 -1.428127 -1.223584 135 108 89
12.301913 -1.428108 -1.196365 134 107 86
12.314614 -1.429948 -1.089453 124 99 79
12.324074 -1.430921 -0.980547 105 82 64
12.331112 -1.431628 -0.898280 105 83 62
12.344586 -1.433636 -0.788940 106 85 64
12.348593 -1.433142 -0.676184 102 84 64
12.356486 -1.434050 -0.592334 99 81 61
12.365547 -1.434864 -0.479404 103 85 63
12.372284 -1.435452 -0.394120 102 83 63
12.377059 -1.435124 -0.278897 101 82 67
12.383686 -1.435669 -0.192506 105 89 74
12.388330 -1.435289 -0.075964 103 87 71
12.391767 -1.434986 0.011912 120 102 80
12.399360 -1.435358 0.129394 116 99 79
12.398607 -1.433950 0.218607 115 97 83
12.393741 -1.431469 0.308371 123 106 88
12.394027 -1.429918 0.427944 133 116 98
12.393189 -1.428476 0.518007 112 98 85
12.391308 -1.426761 0.608353 115 102 86
12.383359 -1.423058 0.729138 117 102 83
12.382445 -1.421587 0.819966 122 105 89
12.381504 -1.420104 0.911063 118 102 86
12.376502 -1.417569 1.002196 123 106 90
12.368470 -1.413834 1.123808 106 90 74
12.359421 -1.410250 1.214842 103 86 68
12.346360 -1.405632 1.305420 103 85 65
12.342989 -1.469908 1.421501 110 90 66
12.327861 -1.468355 1.506426 108 87 66
12.398006 -1.465426 1.694590 106 89 63
12.392863 -1.464898 1.723463 110 90 65
12.377433 -1.463314 1.810081 114 94 67
12.360798 -1.462333 1.926492 107 87 62
12.345357 -1.460748 2.013177 96 78 56
12.333829 -1.460291 2.100915 97 79 57
12.313225 -1.458176 2.216582 111 91 66
12.395057 -1.455084 2.333167 109 90 70
12.379306 -1.453467 2.421594 107 89 69
12.363554 -1.451850 2.510021 107 88 72
12.342552 -1.449694 2.627923 97 81 66
12.326800 -1.448077 2.716350 98 81 65
12.311048 -1.446460 2.804777 97 79 59
12.391611 -1.442276 2.934035 89 72 52
12.375558 -1.440628 3.024155 88 71 53
12.355719 -1.437910 3.112513 91 76 57
12.335903 -1.435194 3.200739 83 65 47
12.392802 -1.425505 3.393610 79 60 43
12.387370 -1.424948 3.424103 78 59 42
12.359859 -1.420146 3.509505 75 56 39
12.327012 -1.414796 3.624869 80 59 41
12.380958 -1.402210 3.744372 98 70 48
12.367392 -1.412337 3.803621 101 73 51
12.394759 -1.372032 -1.346108 125 103 89
12.301159 -1.380736 -1.281853 129 106 90
12.303990 -1.380946 -1.190877 128 105 87
12.313220 -1.382545 -1.070837 106 89 73
12.316009 -1.382742 -0.979143 98 79 64
12.317759 -1.382684 -0.886899 95 76 61
12.324615 -1.383862 -0.795741 95 76 61
12.333721 -1.385421 -0.673569 96 79 63
12.336436 -1.385592 -0.580568 95 76 61
12.342198 -1.386499 -0.487923 94 79 60
12.348959 -1.387645 -0.395099 97 80 62
12.357937 -1.389161 -0.270705 91 77 64
12.360573 -1.389306 -0.176330 97 84 75
12.366243 -1.390182 -0.082091 97 83 70
12.372908 -1.391296 0.012399 112 96 81
12.379550 -1.392403 0.107293 111 94 76
12.381098 -1.392280 0.203016 104 90 77
12.385843 -1.392759 0.330846 109 95 82
12.388369 -1.392868 0.427117 125 110 89
12.394922 -1.393946 0.523543 106 94 80
12.393375 -1.393071 0.620467 106 94 82
12.394846 -1.392922 0.717542 111 97 84
12.393280 -1.392041 0.814786 115 101 88
12.391707 -1.391158 0.912166 111 99 85
12.390125 -1.390272 1.009680 111 99 85
12.388536 -1.389383 1.107328 100 88 74
12.386940 -1.388493 1.205111 96 84 70
12.381323 -1.386636 1.302606 97 82 69
12.375707 -1.384779 1.400100 91 78 62
12.368219 -1.382303 1.530092 91 75 59
12.358604 -1.379488 1.626938 91 75 59
12.352992 -1.377632 1.724365 89 73 57
12.347379 -1.375777 1.821792 94 79 60
12.341767 -1.373921 1.919219 90 74 59
12.332171 -1.371112 2.015729 85 69 54
12.326563 -1.369258 2.113089 86 70 55
12.320955 -1.367403 2.210448 89 73 57
12.311375 -1.364599 2.306689 87 71 58
12.396204 -1.351413 2.464142 87 73 62
12.388444 -1.349233 2.528804 83 71 59
12.374833 -1.345504 2.624970 84 72 60
12.358272 -1.341088 2.719825 86 72 61
12.344696 -1.337370 2.815402 82 70 58
12.331135 -1.333658 2.910709 82 68 55
12.317590 -1.329950 3.005747 82 68 55
12.395734 -1.314585 3.138777 66 52 39
12.384038 -1.311533 3.201727 66 50 37
12.331133 -1.310536 3.313499 84 61 43
12.393272 -1.321929 3.666560 97 70 49
12.381537 -1.324016 3.740436 97 71 48
12.390955 -1.300326 3.815772 103 77 54
12.308664 -1.297661 0.546350 117 105 89
12.388671 -1.286194 0.681733 129 113 97
12.341072 -1.291264 0.742079 129 111 97
12.385367 -1.284552 0.866965 122 108 97
12.384980 -1.287196 0.917888 122 108 97
12.384005 -1.292472 1.020518 111 98 89
12.377595 -1.296338 1.123848 107 93 80
12.374450 -1.299718 1.202038 103 89 76
12.399151 -1.295684 1.498014 103 87 71
12.397892 -1.298213 1.552333 103 86 66
12.399763 -1.299364 2.085539 92 75 57
12.389894 -1.299665 2.140645 96 78 58
12.363172 -1.299883 2.278196 97 80 62
12.397902 -1.287531 2.406779 98 81 63
12.373728 -1.287024 2.517891 98 82 66
12.352691 -1.285867 2.600267 96 80 64
12.324642 -1.284326 2.710103 92 76 59
12.399103 -1.276029 3.379841 80 55 35
12.384798 -1.273751 3.404410 81 56 36
12.376827 -1.210352 3.682544 101 73 49
12.300619 -1.221454 3.701263 103 75 51
12.395924 -1.204834 3.815980 117 86 58
12.397752 -1.161121 3.692470 102 75 48
12.374484 -1.129905 3.709244 96 69 42
12.373112 -1.105435 3.826869 51 33 16
12.372693 -1.113052 4.700736 77 58 43
12.381456 -1.095599 3.791221 50 30 6
12.398260 -1.054207 3.864849 81 68 52
12.339312 -1.049408 3.922675 81 67 54
12.387711 -1.042479 4.023683 80 66 53
12.385361 -1.028863 4.159859 76 60 45
12.376495 -1.009479 4.259222 78 60 46
12.309806 -1.003260 4.315208 77 60 44
12.334972 -1.010465 4.409458 79 61 43
12.398224 -1.034498 4.541451 93 71 50
12.378717 -1.019141 4.625179 104 76 52
12.387163 -1.009665 4.724708 99 73 50
12.385639 -0.990638 4.338538 76 60 44
12.394310 -0.949151 4.494158 98 70 48
12.376260 -0.922465 4.555026 106 76 52
12.397719 -0.910499 4.606981 100 73 46
12.354108 -0.924134 4.701846 100 74 51
12.380726 -0.897428 4.596835 100 72 48
12.384376 -0.845261 4.677139 100 72 48
12.388135 -0.819144 4.719669 100 72 48
12.390899 -0.792504 4.761762 98 70 46
12.359649 -0.761611 4.814463 97 71 48
12.382202 -0.672489 4.748490 62 41 24
12.399653 -0.655994 4.837532 64 50 37
12.383463 -0.639089 4.973412 63 51 37
12.374969 -0.616455 5.042477 63 49 36
12.393486 -0.613122 5.114700 55 45 33
12.393371 -0.609648 5.296721 58 44 35
12.376338 -0.610693 5.312231 59 45 36
12.384809 -0.606844 5.408556 65 47 33
12.378004 -0.607979 5.566627 68 49 34
12.381455 -0.618387 5.653241 66 47 30
12.377531 -0.592013 5.169562 72 57 42
12.388220 -0.575611 5.255302 75 56 39
12.397251 -0.558249 5.341804 70 51 36
12.384015 -0.516114 5.486066 66 47 33
12.337473 -0.515193 5.515380 64 45 30
12.384949 -0.506390 5.673299 64 45 30
12.391117 -0.412458 5.571554 66 47 32
12.380356 -0.422889 5.637328 65 46 31
12.378435 -0.421360 5.770219 63 44 29
12.374849 -0.400145 5.802384 63 44 29
12.375728 -0.384984 5.594478 66 47 32
12.381516 -0.331574 5.641528 64 45 30
12.398573 -0.399989 5.794003 63 44 29
12.399926 -0.357799 5.870381 62 43 28
12.380807 -0.336917 5.924156 62 43 28
12.371365 -0.299291 5.739788 63 44 27
12.368309 -0.278299 5.801612 61 42 27
12.317449 -0.261805 5.931221 41 24 14
12.371086 -0.230222 6.049362 43 30 21
12.396365 -0.209989 6.124442 42 29 20
12.386819 -0.201323 6.234659 49 31 19
12.365251 -0.199270 6.039342 50 36 23
12.399132 -0.152587 6.124657 53 35 23
12.388730 -0.132782 6.267895 54 35 20
12.359764 -0.107786 6.309298 54 35 20
12.383343 -0.057668 6.382401 57 38 23
12.379976 -0.005439 6.462591 59 40 25
12.398241 -0.007338 6.560200 55 36 21
12.372677 0.076384 6.585158 59 40 26
12.377459 0.064662 6.684857 56 37 22
12.382663 0.089753 6.733054 54 35 20
12.316386 0.085396 6.847966 54 35 20
12.389678 0.115457 6.784992 53 34 20
12.377433 0.168465 6.895410 44 25 10
12.386844 0.196237 6.954905 47 28 13
12.397550 0.291291 7.025180 50 31 16
12.331717 0.393117 7.396407 52 33 16
12.354484 0.475469 7.469485 61 42 25
12.317165 0.450998 7.583961 54 37 19
12.381658 0.496059 7.662031 58 41 23
12.367801 0.566338 7.794807 58 41 23
12.365630 0.591806 7.856548 58 39 24
12.356740 0.695766 7.852167 47 31 15
12.377906 0.621797 7.977375 50 31 16
12.314199 0.672048 8.080578 41 28 12
12.377880 0.681383 8.161428 48 31 13
12.398652 0.772925 7.997479 50 34 19
12.391294 0.799857 8.053399 50 34 19
12.398539 0.708301 8.188629 49 33 17
12.389101 0.766256 8.290498 54 38 22
12.392714 0.795761 8.334986 55 39 23
12.395499 0.855859 8.160769 50 37 20
12.386980 0.885092 8.220464 53 37 22
12.377642 0.826897 8.395134 58 40 24
12.389010 0.859331 8.454443 61 42 27
12.373663 0.892303 8.518349 60 43 25
12.381379 0.915780 8.286642 54 38 22
12.376626 0.947679 8.356556 56 38 24
12.397759 0.981249 8.426257 57 42 23
12.385376 0.926656 8.581311 59 40 25
12.371177 0.961974 8.651766 59 40 25
12.380854 0.997862 8.714657 58 39 22
12.374861 0.996528 10.158669 37 31 17
12.382237 1.000797 8.495491 55 40 21
12.369114 1.015369 8.507615 57 42 23
12.374651 1.091451 8.692092 45 32 16
12.392414 1.035199 8.782131 58 41 23
12.371917 1.072314 8.848901 57 38 23
12.397881 1.021026 9.984586 37 30 14
12.395874 1.085268 10.093365 37 28 13
12.380445 1.082253 10.144592 35 28 11
12.399490 1.082566 10.245254 39 30 14
12.398537 1.130750 8.775576 50 36 23
12.387559 1.168966 8.853216 51 37 24
12.365662 1.152204 8.997055 49 32 22
12.382472 1.195842 9.082028 52 36 21
12.375312 1.184847 10.128988 40 31 14
12.380742 1.174482 10.283102 45 34 16
12.323606 1.245146 8.999374 49 33 18
12.374548 1.289932 9.085689 48 32 17
12.339373 1.217414 9.859830 39 31 12
12.330857 1.272275 9.990995 38 30 11
12.348744 1.290454 10.047093 39 31 12
12.389837 1.285652 10.181536 38 30 7
12.345033 1.201258 10.271523 47 36 18
12.372515 1.287614 10.321692 46 35 17
12.396306 1.335529 9.177317 52 38 24
12.387185 1.310206 10.099655 39 31 12
12.373417 1.392865 10.158742 46 35 17
12.379897 1.391700 10.242846 44 33 13
12.385819 1.368705 10.385391 47 36 17
12.372466 1.395863 10.409844 47 36 18
12.391854 1.447624 10.186191 45 34 16
12.305613 1.498897 10.230948 39 28 8
12.394554 1.410913 10.389323 39 30 13
12.374178 1.452016 10.458421 48 35 18
12.374379 1.490139 10.560365 34 23 5
12.376931 1.481998 11.065970 27 19 6
12.392877 1.530248 10.230980 46 33 14
12.375961 1.536261 10.384656 32 23 6
12.390317 1.581368 10.438892 37 28 13
12.382209 1.583772 10.594576 35 28 12
12.367157 1.537802 10.675263 34 25 8
12.355285 1.587912 10.789552 35 28 10
12.393584 1.586253 11.091539 30 21 8
12.382720 1.596719 11.107775 33 24 7
12.367981 1.641255 10.280712 49 38 20
12.382782 1.603955 10.464113 38 29 12
12.392062 1.627082 10.678107 38 29 12
12.378788 1.671531 10.768481 42 31 11
12.361190 1.641188 10.892044 41 30 12
12.396623 1.670212 10.950131 47 34 15
12.377554 1.697886 11.016836 48 35 15
12.356601 1.677026 11.195368 39 31 12
12.327741 1.699270 11.234527 43 32 12
12.383729 1.709094 10.257376 48 37 19
12.393054 1.754446 10.887559 45 33 11
12.394689 1.781703 10.935017 45 34 14
12.386440 1.727479 11.082509 48 35 16
12.397157 1.758100 11.152836 47 34 15
12.376227 1.788146 11.223597 48 35 16
12.365251 1.799902 11.384612 45 34 16
12.377227 1.794082 11.409475 44 31 14
12.395161 1.809449 10.981570 42 34 13
12.393376 1.837545 11.025383 44 33 15
12.380842 1.874399 11.185214 37 27 10
12.386335 1.820527 11.296833 47 35 13
12.395524 1.853741 11.370095 46 35 15
12.372377 1.886361 11.444940 50 37 18
12.384031 1.889650 11.553504 39 28 10
12.373798 1.887562 11.988817 23 20 5
12.383215 1.899265 12.011558 37 25 9
12.371975 1.887158 12.109819 38 24 7
12.398626 1.984547 11.192898 28 21 5
12.388437 1.903088 11.243865 31 22 5
12.373846 1.961458 11.363776 35 26 11
12.380471 1.992376 11.425248 36 28 12
12.316282 1.918362 11.522502 57 42 21
12.388214 1.982150 11.855132 30 21 6
12.354757 1.983226 11.991999 33 25 6
12.387887 1.984898 12.000906 33 25 6
12.322831 1.997961 12.102613 28 18 6
12.380525 2.023110 11.476350 39 30 13
12.355996 2.086343 11.592637 42 33 18
12.349297 2.054917 11.697636 24 19 7
12.383084 2.087960 11.766435 28 22 8
12.376246 2.030170 11.875518 31 22 7
12.302082 2.006477 11.997002 36 25 7
12.339610 2.087790 12.011534 38 29 12
12.375582 2.095684 12.101593 31 22 7
12.312262 2.101098 11.896884 36 27 12
12.394190 2.180598 11.939655 39 27 12
12.318358 2.194561 12.071977 42 30 16
12.355692 2.199325 12.102224 37 25 9
12.394978 2.232340 11.982651 41 29 13
12.301392 2.221235 12.092483 42 31 13
12.396707 2.297582 12.154956 44 31 12
12.337500 2.246361 12.378760 41 30 10
12.379028 2.277754 12.499942 43 32 14
12.376421 2.293743 12.562417 44 33 13
12.328579 2.336961 12.098320 37 29 11
12.363484 2.395139 12.156343 36 27 10
12.391888 2.386255 12.205137 38 26 10
12.392666 2.385032 12.366797 38 26 10
12.396579 2.327880 12.695662 43 32 14
12.399332 2.345162 12.772606 36 25 7
12.354444 2.382697 12.896137 33 26 8
12.383105 2.383220 12.901205 34 26 9
12.379698 2.477195 12.077805 37 26 8
12.378707 2.424447 12.181452 36 27 10
12.384531 2.483257 12.239061 40 28 12
12.389748 2.408215 12.440570 37 29 10
12.354734 2.456543 12.593849 51 40 22
12.348663 2.482200 12.672005 47 36 18
12.395490 2.404190 12.960701 35 25 13
12.322552 2.469421 13.096890 49 38 18
12.379596 2.494572 13.147386 47 36 16
12.336524 2.551101 12.087734 38 26 10
12.364215 2.509062 12.742363 47 35 19
12.386728 2.564830 12.873144 48 36 20
12.399804 2.594073 12.943709 50 37 19
12.397146 2.532731 13.090403 39 28 10
12.375890 2.518723 13.186080 44 33 11
12.355932 2.593667 13.291763 45 32 13
12.388682 2.594696 13.300401 43 30 11
12.392131 2.654131 13.083243 51 37 16
12.372268 2.685031 13.155109 53 38 19
12.369629 2.669736 13.248990 43 32 12
12.345536 2.619355 13.321938 45 32 13
12.389286 2.750689 13.297142 53 38 19
12.397024 2.784814 13.369192 53 38 19
12.336206 2.871986 13.183729 46 33 16
12.373824 2.819146 13.445388 54 38 22
12.352831 2.890760 13.593268 46 34 18
12.385456 2.825822 13.668406 37 25 10
12.385794 2.850314 13.799087 34 25 10
12.339723 2.899279 13.852149 34 27 11
12.377164 2.926188 13.870198 33 26 10
12.395406 2.978252 13.900146 35 28 12
12.397146 3.085589 13.992309 38 29 14
12.391205 3.077348 14.035347 36 27 12
12.375425 3.105562 13.990253 29 19 7
12.367854 3.104652 14.085840 35 25 13
12.323964 3.161816 14.197374 38 28 16
12.303709 3.191895 14.259373 40 28 16
12.392815 3.218498 14.272906 36 24 10
12.325529 3.233708 14.477753 38 28 16
12.376126 3.269294 14.564342 38 28 16
12.344753 3.299357 14.611057 30 20 8
12.339884 3.299685 14.727820 26 19 7
12.389649 3.311669 14.460766 28 21 11
12.373842 3.303441 14.593118 29 21 10
12.304196 3.360957 14.696290 37 27 15
12.366392 3.397359 14.754198 37 27 16
12.385020 3.410010 14.693388 30 22 11
12.389284 3.431024 14.794927 39 29 18
12.388680 3.494481 14.848337 38 28 16
12.390626 3.505335 14.697021 31 22 7
12.369918 3.521290 14.799619 33 23 11
12.321420 3.555307 14.894565 39 29 19
12.387885 3.559371 14.902669 39 29 19
12.388720 3.602423 14.727217 33 24 9
12.397113 3.610906 14.890271 35 25 13
12.391257 3.787097 14.963611 37 39 29
12.376267 3.787767 15.032957 40 41 33
12.303381 3.763623 16.956231 17 16 18
12.301693 3.799842 17.094950 37 36 32
12.346464 3.772241 19.097469 65 61 79
12.384466 3.778195 19.190094 68 65 82
12.355079 3.762641 19.290869 79 76 95
12.382308 3.765151 19.328796 83 80 99
12.389751 3.754465 19.497230 87 84 103
12.382722 3.759279 19.588758 91 88 109
12.373858 3.765266 19.682520 92 90 111
12.389737 3.770430 19.782293 95 93 114
12.396800 3.781818 19.872034 99 94 117
12.397164 3.798007 19.954511 101 97 121
12.398223 3.795970 20.046717 90 87 108
12.373861 3.799268 20.163976 99 98 112
12.391965 3.881883 14.964287 37 38 30
12.394122 3.887525 15.011981 40 42 31
12.340319 3.899716 15.192237 43 44 36
12.345445 3.881348 17.071043 49 48 46
12.300558 3.863135 17.117339 29 27 28
12.317372 3.850598 19.471721 98 94 117
12.367011 3.865299 19.552498 94 92 113
12.394923 3.866685 19.675768 96 94 116
12.399048 3.882663 19.765198 95 93 115
12.397180 3.893163 19.804775 96 94 116
12.371819 3.806873 19.996888 98 96 118
12.397569 3.823636 20.084281 99 97 121
12.328684 3.885848 20.195183 115 114 134
12.384743 3.868186 20.246802 107 105 126
12.367643 3.999489 14.965080 42 44 33
12.392135 3.963020 15.004693 38 41 32
12.327715 3.979020 15.166427 43 44 36
12.314960 3.933757 17.066384 51 50 48
12.344297 3.984409 17.121521 34 32 33
12.394102 4.096667 14.966637 19 25 23
12.344448 4.093799 17.119032 42 43 38
12.392354 4.191729 14.963537 28 31 24
12.327897 4.139124 17.093020 45 45 44
12.372457 4.199834 17.194579 50 49 48
12.388200 4.285970 14.956739 67 68 62
12.369488 4.289729 17.187883 53 52 50
12.321851 4.288978 17.217095 47 46 44
12.315262 4.390523 14.930964 37 38 32
12.366519 4.379624 17.181187 56 52 51
12.330843 4.378577 17.200106 53 52 50
12.381243 4.499214 14.945115 30 31 26
12.347157 4.491797 17.185553 52 51 49
12.339306 4.492032 17.210553 51 50 48
12.377085 4.593544 14.938311 40 40 31
12.345669 4.536868 17.182196 49 49 49
12.350310 4.583993 17.225436 42 43 45
12.396415 4.688710 14.928732 28 29 23
12.318684 4.651021 17.212411 34 37 41
12.389856 4.781568 14.918280 27 25 20
12.387778 4.828688 14.914881 36 32 28
12.375468 6.490400 18.524236 42 42 50
12.343454 6.498018 18.609432 42 42 52
12.399789 6.494877 18.750765 47 42 46
12.381282 6.490048 18.814178 46 41 45
12.349824 6.466799 18.906758 45 43 46
12.394735 6.479361 19.563496 68 70 91
12.380048 6.492269 19.610574 70 72 95
12.347034 6.495088 19.703316 71 71 95
12.397151 6.597029 18.482910 52 51 54
12.393772 6.586556 18.519358 50 48 51
12.341623 6.593506 18.607852 53 48 54
12.317105 6.577865 18.703882 53 48 52
12.325870 6.513897 18.814453 48 46 49
12.364909 6.590720 18.910398 25 22 29
12.348774 6.553670 19.403446 67 69 92
12.355791 6.567785 19.510304 70 72 99
12.360438 6.559101 19.618612 73 74 102
12.329720 6.542285 19.715228 76 77 105
12.372582 6.658811 17.536486 60 59 57
12.395530 6.695348 18.208027 56 61 57
12.359974 6.689620 18.304637 57 57 59
12.302269 6.685876 18.413690 59 59 61
12.307984 6.652174 18.507999 56 56 56
12.313858 6.616903 18.606329 55 50 56
12.392550 6.693711 18.781337 54 53 58
12.385861 6.681138 18.813263 54 53 58
12.387408 6.640443 18.903790 52 51 57
12.331915 6.762106 18.113023 63 68 64
12.324663 6.739648 18.212030 59 64 60
12.333227 6.710759 18.302077 56 60 59
12.336724 6.773821 18.446250 55 60 66
12.318906 6.782889 18.516069 57 60 69
12.390752 6.787927 18.655383 58 59 63
12.370424 6.783827 18.704772 57 61 64
12.339476 6.783792 18.825625 56 57 60
12.301860 6.856692 18.493698 63 68 74
12.396177 6.888149 18.509545 65 74 71
12.355004 6.881020 18.600329 65 72 71
12.318545 6.878803 18.705679 65 70 73
12.333034 6.804052 18.815136 58 59 61
12.366147 6.900629 18.539753 68 79 75
12.313556 6.933279 18.615442 75 88 81
12.480120 -1.501545 2.348895 111 89 68
12.484087 -1.501055 2.475397 106 88 68
12.466860 -1.501172 2.563351 105 87 67
12.447675 -1.500710 2.653233 100 83 65
12.428626 -1.500501 2.745878 100 81 64
12.410622 -1.500921 2.841841 102 83 64
12.494288 -1.538504 3.265368 92 73 56
12.494052 -1.536096 3.389212 91 72 55
12.490496 -1.533375 3.451734 90 72 52
12.494899 -1.532754 3.588764 89 68 50
12.493932 -1.531036 3.658319 86 65 48
12.490656 -1.520045 3.777108 90 69 50
12.484554 -1.509056 3.822724 94 69 49
12.488856 -1.421195 -1.464746 128 105 89
12.496871 -1.421972 -1.382172 129 106 90
12.401412 -1.426040 -1.289020 132 109 88
12.409737 -1.426597 -1.178936 129 104 82
12.417760 -1.427466 -1.096409 115 92 71
12.430116 -1.429042 -0.986065 100 79 60
12.443413 -1.430847 -0.874987 106 81 61
12.450191 -1.431368 -0.790142 105 84 63
12.454993 -1.430962 -0.675214 100 82 62
12.458547 -1.430638 -0.588548 98 80 60
12.466331 -1.430981 -0.473015 101 83 63
12.473923 -1.431680 -0.386157 99 81 61
12.476300 -1.431035 -0.297850 97 78 63
12.484906 -1.431558 -0.180387 104 88 72
12.492330 -1.432191 -0.091846 101 85 69
12.495648 -1.431341 0.027808 116 98 79
12.498861 -1.430883 0.117911 113 96 78
12.496998 -1.427838 0.299889 111 95 80
12.493955 -1.426633 0.330496 121 106 89
12.496035 -1.425870 0.421788 130 114 96
12.495028 -1.424317 0.513542 111 98 84
12.493993 -1.422754 0.605565 111 99 83
12.485817 -1.418939 0.728628 117 103 87
12.484731 -1.417355 0.821165 119 105 89
12.482609 -1.415505 0.913929 116 102 86
12.477438 -1.412880 1.006754 113 100 86
12.469182 -1.409034 1.130623 103 90 73
12.459964 -1.405384 1.223350 100 84 68
12.450747 -1.401733 1.316078 98 82 65
12.445430 -1.469567 1.405341 107 89 67
12.424873 -1.467457 1.520743 103 85 63
12.498653 -1.463605 1.682539 102 84 60
12.493415 -1.463068 1.711948 105 87 62
12.477699 -1.461454 1.800176 114 94 69
12.460684 -1.460412 1.918711 105 86 61
12.448885 -1.459905 2.007971 97 79 57
12.427898 -1.457750 2.125784 98 80 58
12.412158 -1.456135 2.214145 109 87 66
12.498633 -1.453262 2.333238 103 85 68
12.482580 -1.451614 2.423357 104 87 67
12.466527 -1.449966 2.513477 105 88 71
12.454327 -1.449396 2.604982 98 81 65
12.432907 -1.447197 2.725230 94 80 63
12.416842 -1.445548 2.815416 97 80 63
12.490751 -1.439351 2.976061 91 73 53
12.485297 -1.438792 3.006682 91 73 53
12.463479 -1.436552 3.129165 89 72 54
12.439560 -1.432778 3.217417 81 62 45
12.416629 -1.429270 3.305872 79 60 45
12.497971 -1.423426 3.447618 76 57 40
12.479393 -1.420245 3.505892 76 57 40
12.483647 -1.439440 3.655099 89 68 49
12.479039 -1.421540 3.713410 95 68 47
12.452026 -1.407525 3.801205 98 72 49
12.448032 -1.379434 -0.414526 93 77 61
12.454326 -1.380744 -0.383690 94 78 62
12.459937 -1.381539 -0.288443 92 76 61
12.462473 -1.381607 -0.192368 96 82 72
12.469060 -1.382629 -0.096567 99 83 70
12.476792 -1.383740 0.031910 110 94 79
12.483326 -1.384744 0.128637 107 91 78
12.485783 -1.384786 0.226086 99 85 72
12.492275 -1.385776 0.323553 101 87 76
12.493685 -1.385568 0.421653 126 110 94
12.492051 -1.384643 0.520076 101 90 78
12.494447 -1.384664 0.618585 104 94 82
12.492793 -1.383732 0.717343 108 96 82
12.495163 -1.383745 0.816323 111 97 84
12.497516 -1.383752 0.915573 109 97 83
12.495831 -1.382810 1.014870 102 92 82
12.490120 -1.380922 1.114014 99 85 72
12.484408 -1.379033 1.213157 93 81 69
12.482708 -1.378086 1.312724 92 79 68
12.472986 -1.375257 1.411444 88 74 61
12.406264 -1.387434 1.528926 96 79 61
12.499984 -1.378873 1.605726 94 79 60
12.470472 -1.330126 1.721458 103 85 65
12.499323 -1.322764 1.880326 102 84 64
12.497715 -1.323926 1.906220 100 83 65
12.432833 -1.362367 2.038437 85 69 54
12.425048 -1.360179 2.103526 86 70 55
12.419345 -1.358293 2.202535 83 67 54
12.409669 -1.355480 2.300448 85 69 56
12.496408 -1.341449 2.494266 81 68 57
12.494476 -1.340810 2.527796 81 69 57
12.476802 -1.336190 2.624494 84 72 60
12.463106 -1.332477 2.722152 84 72 60
12.449427 -1.328770 2.819542 83 71 59
12.435763 -1.325067 2.916662 81 69 57
12.419156 -1.320698 3.012338 75 61 48
12.405526 -1.317007 3.108869 68 54 41
12.432662 -1.303036 3.206425 83 65 45
12.499723 -1.396936 3.349981 86 65 46
12.483621 -1.398566 3.403610 86 65 46
12.496173 -1.368331 3.599845 94 67 46
12.498719 -1.316937 3.630859 94 69 47
12.496077 -1.321293 3.718371 97 71 48
12.473641 -1.317505 3.812355 98 72 49
12.431432 -1.282535 0.784846 125 113 101
12.431577 -1.283994 0.806407 125 113 101
12.433791 -1.278323 0.996066 108 95 86
12.430335 -1.278782 1.021946 107 94 85
12.475900 -1.269808 1.129099 101 89 77
12.471307 -1.272719 1.208799 95 83 71
12.464988 -1.276589 1.315829 92 80 64
12.457430 -1.280180 1.423601 99 84 65
12.457450 -1.284399 1.505807 102 86 70
12.499357 -1.273811 1.622876 97 80 62
12.494786 -1.276844 1.706580 93 78 59
12.483163 -1.279490 1.817905 98 81 61
12.473334 -1.281208 1.901636 103 85 63
12.465357 -1.284875 2.015131 91 74 56
12.452244 -1.287233 2.128174 95 77 57
12.439120 -1.288154 2.212472 98 80 60
12.418922 -1.288686 2.324468 97 80 62
12.498491 -1.289973 3.174165 86 65 46
12.487763 -1.288705 3.200793 85 64 45
12.441207 -1.282618 3.305408 82 56 39
12.489022 -1.205705 3.651246 101 73 49
12.481841 -1.214832 3.735109 101 75 52
12.484732 -1.222740 3.816444 113 83 55
12.498278 -1.180307 3.655180 102 74 50
12.487358 -1.113435 3.764790 97 72 48
12.496646 -1.127382 3.821053 59 37 14
12.475816 -1.087169 3.788047 55 36 19
12.480765 -1.045135 3.886859 82 70 56
12.466428 -1.044986 3.910380 81 69 53
12.496318 -1.035753 4.031820 79 65 52
12.493270 -1.021119 4.168713 75 59 44
12.481410 -1.000283 4.266794 75 59 44
12.429650 -1.012004 4.312884 73 59 43
12.490061 -1.035470 4.454047 78 59 44
12.490143 -1.025506 4.552433 99 72 50
12.484797 -1.008450 4.614598 101 75 51
12.497943 -1.020723 4.722498 96 71 51
12.456391 -0.997619 4.284033 72 56 40
12.468341 -0.978762 4.366249 79 62 44
12.489079 -0.935358 4.494549 93 69 45
12.499291 -0.911302 4.540548 96 68 44
12.481888 -0.912830 4.675409 98 70 46
12.469927 -0.905735 4.714620 92 67 47
12.475078 -0.882455 4.597584 98 71 44
12.484696 -0.830390 4.683274 99 71 47
12.421971 -0.823253 4.709258 100 72 48
12.478832 -0.757721 4.698350 95 71 47
12.421757 -0.795903 4.748572 98 70 46
12.490560 -0.683711 4.740091 61 38 22
12.494254 -0.664169 4.815291 64 48 35
12.489145 -0.624392 4.998432 62 48 35
12.461029 -0.622502 5.010076 62 48 35
12.419362 -0.614350 5.105598 55 45 33
12.475019 -0.603953 5.217247 62 46 36
12.499054 -0.607448 5.376995 66 48 35
12.439994 -0.609193 5.406655 67 49 35
12.498948 -0.614235 5.571147 71 53 33
12.486103 -0.601480 5.649823 67 48 31
12.489922 -0.597870 5.051602 58 46 34
12.497326 -0.577313 5.183532 78 59 44
12.479587 -0.558507 5.276163 72 53 38
12.480320 -0.538871 5.353109 70 51 36
12.493722 -0.517353 5.405927 69 50 34
12.497801 -0.518701 5.514526 66 47 32
12.496238 -0.509336 5.663530 64 45 30
12.494001 -0.468639 5.483916 70 51 34
12.474414 -0.415697 5.541161 70 52 32
12.479798 -0.401058 5.637540 67 48 33
12.424332 -0.400145 5.788173 63 44 29
12.489313 -0.363630 5.597211 69 50 35
12.481055 -0.336404 5.628909 68 49 32
12.470108 -0.302479 5.739150 65 46 32
12.497323 -0.335416 5.874297 63 43 28
12.429580 -0.336596 5.906926 62 43 28
12.486021 -0.280101 5.778105 63 44 29
12.497307 -0.288379 5.942045 52 34 20
12.400109 -0.231145 6.037397 43 30 21
12.487564 -0.211449 6.105989 44 29 20
12.428645 -0.200566 6.224651 50 30 19
12.431162 -0.153122 6.120757 53 35 23
12.436070 -0.133141 6.250866 55 36 19
12.493739 -0.118595 6.372721 52 33 19
12.458041 -0.032555 6.399719 57 38 23
12.486522 -0.006568 6.437872 57 38 23
12.478034 -0.006690 6.560136 54 35 21
12.486249 0.020241 6.479586 57 38 24
12.486677 0.075335 6.566745 57 38 24
12.487290 0.065803 6.685613 55 36 22
12.496043 0.091024 6.737364 56 37 22
12.473616 0.116464 6.785323 54 35 21
12.436840 0.169333 6.899191 45 26 11
12.475225 0.197562 6.957626 45 26 11
12.447741 0.260052 6.998571 49 30 16
12.497695 0.291411 7.021879 50 31 17
12.483077 0.323260 7.051244 48 29 15
12.405609 0.542953 7.750448 60 42 22
12.442270 0.624153 7.995910 52 33 18
12.488109 0.684041 8.166321 50 31 17
12.474782 0.775025 7.997790 49 33 17
12.426700 0.773969 8.001254 51 35 20
12.484889 0.710804 8.196852 47 31 15
12.476325 0.768899 8.297532 51 35 20
12.481276 0.798618 8.342822 51 35 20
12.491281 0.802396 8.049945 51 35 19
12.474217 0.858197 8.160625 52 38 25
12.492587 0.888208 8.219131 51 38 22
12.436364 0.828739 8.399036 55 39 24
12.479383 0.862427 8.461974 55 39 23
12.495693 0.896631 8.528478 58 43 24
12.488370 0.919000 8.285071 51 38 21
12.488253 0.951596 8.359310 53 40 22
12.485714 0.984904 8.432702 56 40 23
12.477114 0.929871 8.587592 60 41 26
12.491938 0.965736 8.654954 60 41 26
12.410771 0.998700 8.714480 58 41 23
12.482550 0.997647 9.994880 34 27 11
12.469952 0.994709 10.185512 37 27 15
12.467163 1.021083 8.527626 58 41 23
12.407646 1.093401 8.698009 46 33 17
12.487372 1.038762 8.787887 59 40 23
12.470005 1.076566 8.858208 52 36 20
12.434144 1.020321 9.998998 36 30 14
12.454164 1.085505 10.099561 37 27 15
12.443275 1.084380 10.156124 36 28 16
12.490337 1.084263 10.255518 36 26 11
12.498669 1.136663 8.792095 47 33 21
12.484177 1.173869 8.862192 48 36 24
12.484328 1.116678 8.931911 46 33 17
12.414449 1.196812 9.081536 48 36 22
12.498081 1.111277 10.086403 26 16 4
12.468800 1.162820 10.146508 37 32 13
12.470740 1.186281 10.259229 35 30 11
12.472423 1.213099 8.939700 53 41 27
12.407824 1.291714 9.088480 49 33 18
12.415583 1.251538 9.955247 41 33 12
12.472242 1.287165 10.056891 39 31 8
12.496444 1.289500 10.160836 40 30 12
12.493315 1.238517 10.290133 40 31 14
12.491758 1.291103 10.328555 42 34 13
12.483135 1.397930 10.152827 44 33 15
12.486348 1.393602 10.243912 43 32 14
12.476924 1.371694 10.391255 48 36 20
12.490911 1.399691 10.411614 47 35 19
12.485144 1.479379 10.196695 43 32 14
12.403016 1.475589 10.203158 42 31 11
12.423357 1.424401 10.397965 45 32 13
12.492099 1.455905 10.457169 43 35 14
12.403544 1.491091 10.563385 36 25 7
12.491085 1.483301 11.079711 26 17 2
12.460474 1.588738 10.243635 48 37 19
12.488862 1.562366 10.395945 40 32 13
12.482241 1.584687 10.421043 40 32 13
12.404697 1.584570 10.591580 33 26 9
12.487961 1.504188 10.967669 26 19 1
12.497761 1.590625 11.091594 31 24 6
12.430462 1.598418 11.100070 31 23 4
12.413044 1.614652 10.259819 48 37 17
12.496543 1.631193 10.474001 39 31 10
12.491930 1.630373 10.677102 42 31 11
12.482469 1.675060 10.770016 43 32 12
12.492547 1.698707 10.821012 42 31 11
12.487439 1.656537 10.941154 36 23 4
12.406697 1.699093 11.015711 48 35 15
12.475423 1.658497 11.174266 34 25 8
12.495214 1.682939 11.203622 39 30 12
12.461414 1.710955 10.253287 44 33 15
12.460954 1.727783 10.689493 48 37 15
12.492922 1.754930 10.735414 48 37 15
12.488710 1.783343 10.856103 47 36 15
12.437085 1.782758 10.910335 45 34 14
12.475094 1.731212 11.078901 45 35 11
12.488627 1.762115 11.151778 46 35 13
12.496909 1.793353 11.217294 47 36 16
12.483118 1.779992 11.351606 42 31 11
12.436275 1.795698 11.416620 44 31 12
12.463875 1.839477 10.996303 46 33 15
12.441564 1.838957 11.007818 47 34 17
12.496391 1.879188 11.190136 35 23 9
12.480530 1.824859 11.296280 48 35 16
