ply
format ascii 1.0
element vertex 1193
property float x
property float y
property float z
property uchar red
property uchar green
property uchar blue
end_header
-0.805877 -0.383579 1.200238 82 130 179
-0.893474 -0.208051 -2.705946 249 249 247
-0.841889 -0.200502 -2.505342 242 206 118
-0.896612 -0.203784 -2.428585 27 28 22
-0.895072 -0.210924 -2.389972 20 19 14
-0.896092 -0.209051 -2.298117 32 27 21
-0.890379 -0.211457 -2.069443 182 193 189
-0.809073 -0.200266 1.182141 0 71 116
-0.803925 -0.208481 1.200102 112 172 208
-0.884335 -0.105557 -2.711032 249 250 245
-0.892851 -0.105344 -2.697440 249 250 245
-0.842725 -0.111859 -2.505735 227 184 105
-0.894224 -0.102346 -2.421649 56 50 38
-0.898761 -0.110324 -2.399035 52 46 34
-0.865065 -0.105865 -2.296148 70 58 35
-0.830401 -0.190570 -2.110454 120 123 116
-0.888618 -0.105625 -2.070870 203 203 195
-0.804627 -0.100102 1.179944 0 78 126
-0.803333 -0.157662 1.200190 30 52 66
-0.898852 -0.003410 -2.669664 250 249 200
-0.841657 -0.008255 -2.500175 217 172 105
-0.893936 -0.001376 -2.420369 57 49 38
-0.898534 -0.024344 -2.398739 50 42 29
-0.856516 -0.002449 -2.298426 151 132 95
-0.835092 -0.082098 -2.106287 104 104 97
-0.877847 -0.001797 -2.080303 200 199 190
-0.800982 -0.002008 1.178292 75 124 180
-0.804090 -0.014741 1.200058 65 81 96
-0.873936 0.097276 -2.705036 251 219 167
-0.897037 0.097152 -2.657697 251 233 169
-0.828188 0.095347 -2.503948 218 171 115
-0.895046 0.099752 -2.422856 49 43 31
-0.890288 0.088616 -2.374525 42 34 23
-0.856266 0.089483 -2.296185 139 121 93
-0.848230 0.075859 -2.102546 197 196 192
-0.891180 0.087930 -2.082000 197 194 186
-0.804422 0.099950 1.175444 79 102 146
-0.819449 0.098794 1.211031 75 76 84
-0.866648 0.197935 -2.715628 227 180 138
-0.897735 0.197229 -2.653699 251 212 155
-0.827776 0.198710 -2.500289 211 168 115
-0.895497 0.186579 -2.423640 48 42 30
-0.892202 0.188578 -2.378768 39 31 20
-0.867385 0.192629 -2.296073 72 60 46
-0.838504 0.192039 -2.113026 198 195 190
-0.899600 0.188894 -2.089784 193 189 180
-0.802390 0.194812 1.174948 74 60 57
-0.802518 0.177997 1.231501 8 16 37
-0.867096 0.297926 -2.710347 219 173 134
-0.898051 0.296630 -2.648532 250 200 147
-0.814889 0.287901 -2.506215 207 164 113
-0.895907 0.288010 -2.424238 48 40 29
-0.892713 0.288556 -2.379253 45 37 26
-0.869166 0.296248 -2.298267 73 60 42
-0.864386 0.291311 -2.105472 189 186 179
-0.888458 0.289578 -2.099450 186 183 176
-0.802786 0.299987 1.176248 78 63 56
-0.800671 0.278771 1.200467 86 70 57
-0.867876 0.397456 -2.706205 214 166 131
-0.898346 0.395404 -2.643341 245 189 142
-0.813864 0.390899 -2.500654 197 153 106
-0.894919 0.388990 -2.421076 48 40 29
-0.892523 0.388386 -2.377862 47 39 28
-0.859556 0.388653 -2.298328 120 90 75
-0.891081 0.388987 -2.112239 177 174 167
-0.886152 0.383424 -2.072102 14 20 16
-0.801848 0.397891 1.176546 77 63 54
-0.801484 0.398235 1.201206 94 65 51
-0.868992 0.496641 -2.703207 209 159 124
-0.899357 0.493960 -2.640423 236 180 133
-0.800374 0.494804 -2.504427 188 145 102
-0.894630 0.490195 -2.419793 51 41 31
-0.893734 0.488983 -2.380218 51 43 32
-0.857456 0.490727 -2.291650 119 90 78
-0.886386 0.499108 -2.117866 172 165 157
-0.848896 0.497706 -2.093331 183 194 188
-0.800886 0.429907 1.176185 79 62 54
-0.805227 0.450572 1.202881 92 63 49
-0.869421 0.552977 -2.700819 206 156 121
-0.898876 0.591069 -2.632883 227 168 124
-0.801246 0.552981 -2.500381 179 140 99
-0.892945 0.590478 -2.414755 42 33 24
-0.896347 0.590821 -2.386313 46 38 27
-0.846989 0.594038 -2.289495 163 132 102
-0.885325 0.594540 -2.118302 166 159 151
-0.856366 0.591145 -2.086947 187 192 188
-0.801504 0.596010 1.182271 55 48 42
-0.800343 0.592528 1.200082 83 69 56
-0.899851 0.688528 -2.629921 222 160 119
-0.808535 0.689242 -2.520206 162 129 96
-0.893354 0.692066 -2.415352 41 32 23
-0.898259 0.692745 -2.390529 46 36 26
-0.835573 0.696663 -2.285126 165 136 90
-0.889152 0.698815 -2.116134 158 151 145
-0.857202 0.696212 -2.088664 96 100 99
-0.800181 0.694606 1.179721 54 47 41
-0.801769 0.696831 1.200672 82 68 57
-0.865375 0.793159 -2.712178 193 142 106
-0.893356 0.786659 -2.642508 213 154 112
-0.807677 0.790099 -2.515800 156 123 90
-0.893763 0.793811 -2.415947 44 34 25
-0.836575 0.788013 -2.398212 174 132 93
-0.831633 0.795850 -2.274034 170 140 94
-0.889633 0.790200 -2.115168 153 144 139
-0.867158 0.728730 -2.085378 50 50 50
-0.804970 0.797111 1.175398 50 45 41
-0.800084 0.791002 1.201838 80 68 56
-0.820481 0.898475 -2.804094 181 140 112
-0.857460 0.890549 -2.720110 180 139 109
-0.897359 0.891321 -2.609477 213 150 107
-0.805575 0.889414 -2.508108 152 117 85
-0.893474 0.895016 -2.414665 38 31 23
-0.832975 0.898461 -2.388375 177 135 96
-0.826232 0.823599 -2.285178 172 130 90
-0.817845 0.804739 -2.134442 153 145 142
-0.837007 0.889920 -1.620628 123 128 130
-0.805835 0.899347 -1.564507 128 133 136
-0.808470 0.899759 -1.456416 158 162 163
-0.899818 0.899765 -1.302131 132 137 140
-0.887552 0.899722 -1.294696 132 137 140
-0.884507 0.885353 -1.196220 196 205 204
-0.878439 0.886535 -1.097667 220 229 226
-0.803949 0.883634 1.175617 48 43 39
-0.804482 0.896426 1.200705 79 66 57
-0.819416 0.945968 -2.709372 183 140 106
-0.813578 0.946196 -2.605662 247 191 140
-0.805725 0.901729 -2.539664 145 110 78
-0.889822 0.949141 -2.404561 44 33 27
-0.890479 0.992196 -2.365523 155 121 84
-0.897098 0.993062 -2.274548 158 124 87
-0.801126 0.986586 -2.196433 179 153 128
-0.813875 0.914129 -1.611226 147 152 158
-0.805732 0.902069 -1.587100 126 131 134
-0.858536 0.924104 -1.472089 141 146 149
-0.896434 0.913665 -1.396011 130 136 136
-0.878353 0.902799 -1.297813 128 133 136
-0.862695 0.900571 -1.151061 220 226 222
-0.861272 0.903693 -1.099777 219 228 223
-0.824309 0.906408 -0.997671 213 214 198
-0.804403 0.962678 1.184590 55 51 42
-0.800319 0.909821 1.200075 70 63 57
-0.868106 1.090584 -2.401501 134 115 100
-0.895610 1.095671 -2.338972 158 124 86
-0.895821 1.099087 -2.269947 158 124 87
-0.808256 1.037211 -2.199526 183 156 129
-0.846884 1.081502 0.014442 215 206 199
-0.811950 1.081290 0.102650 212 203 198
-0.809772 1.001508 1.191859 62 54 51
-0.801211 1.070806 1.200318 72 62 53
-0.867161 1.149764 -2.400568 153 137 121
-0.897484 1.196992 -2.343322 153 118 89
-0.898327 1.196301 -2.274871 156 122 87
-0.897956 1.184624 -2.120513 221 205 190
-0.803665 1.199684 -2.006834 216 203 187
-0.831900 1.162152 -1.906785 236 206 178
-0.835178 1.164648 -1.805728 232 201 172
-0.804471 1.166684 -1.712821 228 197 166
-0.807757 1.169196 -1.612515 223 190 159
-0.802841 1.168156 -1.507500 217 184 151
-0.800093 1.167897 -1.418474 212 179 144
-0.830361 1.199277 -1.301515 199 181 161
-0.810752 1.195059 -1.200667 196 179 161
-0.899607 1.198380 -1.114892 191 174 158
-0.866130 1.190104 -1.006581 168 155 138
-0.800052 1.189907 -0.914799 167 154 137
-0.829709 1.158259 -0.812586 196 167 135
-0.862743 1.199356 -0.703008 180 167 150
-0.828325 1.197328 -0.600744 176 164 150
-0.832080 1.199665 -0.502416 197 180 160
-0.871735 1.193001 -0.404826 201 177 151
-0.807562 1.196709 -0.300231 200 176 150
-0.802702 1.199721 -0.232299 197 173 147
-0.807785 1.190931 -0.104326 180 167 150
-0.804503 1.189296 -0.001685 176 163 146
-0.880423 1.184017 0.099466 170 157 140
-0.899477 1.182927 0.119163 169 156 140
-0.884195 1.172311 0.200078 184 166 156
-0.883423 1.171551 0.301292 182 164 154
-0.898311 1.196563 0.486185 168 155 139
-0.880941 1.170458 0.505420 177 161 148
-0.880247 1.169645 0.608084 173 160 144
-0.875538 1.170721 0.712691 172 158 145
-0.876144 1.169447 0.801140 173 157 142
-0.890380 1.161414 0.913536 170 154 139
-0.828429 1.197858 1.092972 132 120 104
-0.803033 1.199987 1.184497 25 21 18
-0.800680 1.145401 1.200055 68 54 41
-0.853567 1.226737 -2.401056 135 125 114
-0.853578 1.271424 -2.305349 233 228 222
-0.890974 1.298096 -2.214350 231 224 214
-0.892061 1.297610 -2.144999 229 220 211
-0.897359 1.279364 -2.089211 249 234 227
-0.803095 1.232930 -1.906334 244 226 214
-0.832503 1.233382 -1.802210 240 221 206
-0.822975 1.230098 -1.703614 237 216 199
-0.822580 1.227993 -1.603868 230 209 188
-0.805233 1.226206 -1.501567 226 203 187
-0.821208 1.226057 -1.400149 223 201 180
-0.812035 1.224457 -1.303823 219 197 176
-0.841822 1.226114 -1.200550 215 192 174
-0.897762 1.227821 -1.140160 212 189 171
-0.817378 1.204963 -1.005526 206 185 168
-0.812689 1.203408 -0.904459 205 183 169
-0.802098 1.204316 -0.804240 202 180 167
-0.896218 1.206086 -0.707748 197 178 164
-0.898728 1.216639 -0.679353 190 171 157
-0.806721 1.215455 -0.502364 207 189 165
-0.808735 1.214937 -0.400467 205 187 165
-0.866788 1.200430 -0.301106 199 175 147
-0.801337 1.201653 -0.205440 197 173 147
-0.800627 1.201682 -0.198460 197 173 147
-0.801042 1.204016 -0.036182 191 169 145
-0.800421 1.203249 0.040069 188 166 142
-0.881223 1.204616 0.195305 174 150 124
-0.845757 1.206652 0.293793 172 148 122
-0.806826 1.207730 0.399409 167 145 121
-0.846656 1.212217 0.497813 160 134 109
-0.803145 1.214050 0.559170 159 135 109
-0.850878 1.214977 0.698998 150 124 97
-0.805057 1.215263 0.740926 149 123 96
-0.808017 1.270111 0.896675 126 109 93
-0.801574 1.269994 0.900158 126 109 91
-0.804298 1.259346 1.006630 121 105 89
-0.805406 1.246867 1.146008 92 85 75
-0.844149 1.312686 -2.203824 231 224 216
-0.890905 1.305991 -2.179081 229 222 212
-0.898410 1.356606 -1.803685 193 175 161
-0.820732 1.324436 -1.707521 176 161 142
-0.802458 1.343420 -1.665157 170 157 138
-0.799973 -1.432427 -1.893468 120 97 79
-0.797385 -1.425022 -1.777435 128 105 87
-0.795613 -1.428544 -1.685632 154 137 114
-0.707533 -1.401211 -1.081471 48 29 16
-0.718923 -1.404828 -0.998075 48 29 15
-0.709082 -1.403572 -0.898954 35 21 12
-0.737208 -1.400284 -0.615184 22 13 8
-0.756131 -1.410176 -0.599612 20 9 3
-0.795428 -1.407669 -0.309563 47 35 34
-0.795346 -1.406561 -0.297586 52 38 37
-0.730883 -1.405455 -0.120527 208 174 147
-0.703393 -1.404483 -0.032872 201 168 137
-0.713464 -1.406145 0.008705 196 162 135
-0.704243 -1.403716 0.139663 189 155 128
-0.734791 -1.400599 0.200101 183 149 122
-0.711724 -1.400380 0.368004 150 122 98
-0.709092 -1.400776 0.440208 145 117 93
-0.703536 -1.402436 0.515033 132 104 82
-0.706744 -1.404056 0.685138 118 92 69
-0.702297 -1.405228 0.765889 88 69 54
-0.730165 -1.400203 0.893391 102 77 55
-0.702419 -1.400697 0.969172 99 74 52
-0.721651 -1.400059 1.088472 92 68 44
-0.760130 -1.405823 1.111541 119 96 80
-0.700899 -1.411914 1.204046 89 63 38
-0.716050 -1.434099 1.301230 4 0 0
-0.793012 -1.301231 -2.001022 67 47 36
-0.791416 -1.304811 -1.948754 106 84 70
-0.792933 -1.369789 -1.895503 103 86 70
-0.791667 -1.375091 -1.797525 116 94 73
-0.790727 -1.373526 -1.694496 126 101 81
-0.799853 -1.374490 -1.595726 134 110 86
-0.795840 -1.377677 -1.492737 156 130 103
-0.792307 -1.375190 -1.389227 174 147 117
-0.797957 -1.375726 -1.291549 188 164 136
-0.791145 -1.376514 -1.190799 202 171 140
-0.798611 -1.379669 -1.096226 209 178 149
-0.781120 -1.364728 -0.990893 154 132 108
-0.797181 -1.376032 -0.899107 80 61 44
-0.792279 -1.378452 -0.795802 71 53 43
-0.780332 -1.391333 -0.696971 50 40 31
-0.792291 -1.367910 -0.594803 30 19 13
-0.795293 -1.360297 -0.406801 76 73 68
-0.799373 -1.309550 -0.300179 129 107 83
-0.799413 -1.369242 -0.201315 206 184 147
-0.792212 -1.373775 -0.103004 224 203 158
-0.797631 -1.379546 -0.005821 217 193 157
-0.796097 -1.379661 0.096937 215 193 151
-0.798419 -1.379030 0.196985 208 183 142
-0.797663 -1.380554 0.295894 202 178 140
-0.788701 -1.381505 0.399007 186 162 124
-0.796390 -1.382495 0.499900 176 152 118
-0.794417 -1.380856 0.598933 165 140 109
-0.794694 -1.376465 0.697633 157 134 107
-0.730782 -1.356413 0.799543 146 125 104
-0.797948 -1.367491 0.899860 135 118 100
-0.781570 -1.370891 0.999265 132 113 98
-0.754581 -1.370423 1.099849 130 108 87
-0.731964 -1.359770 1.199551 118 95 77
-0.706279 -1.303101 1.225200 51 45 47
-0.700338 -1.381260 1.349490 22 7 2
-0.791341 -1.206305 -1.932807 83 68 61
-0.705160 -1.221684 -1.899799 83 69 66
-0.701596 -1.290223 -1.412867 23 9 6
-0.712364 -1.290479 -1.398645 26 13 5
-0.758704 -1.295591 -1.296158 38 21 11
-0.703257 -1.295748 -1.134142 14 4 2
-0.760399 -1.296151 -1.093616 97 76 59
-0.789172 -1.290832 -0.992547 103 82 63
-0.718614 -1.214809 -0.898453 27 13 5
-0.748842 -1.217372 -0.799096 27 14 5
-0.794549 -1.291931 -0.493443 24 13 11
-0.791125 -1.279288 -0.319131 103 87 71
-0.742499 -1.264806 -0.297124 98 85 69
-0.710578 -1.254032 -0.188519 52 38 25
-0.775932 -1.296723 -0.003128 83 71 55
-0.789022 -1.299412 0.007207 89 69 47
-0.791293 -1.204483 1.194503 78 70 67
-0.702526 -1.248507 1.230410 67 63 64
-0.711237 -1.270580 1.303263 57 39 35
-0.798116 -1.113942 -2.131703 6 2 1
-0.784904 -1.102706 -2.057080 5 4 2
-0.794227 -1.109796 -1.940852 90 74 66
-0.700115 -1.119541 -1.897570 89 75 66
-0.700994 -1.105740 -1.223196 107 87 71
-0.701107 -1.102708 -1.155504 106 81 59
-0.704096 -1.125410 -1.086836 65 46 31
-0.741178 -1.109736 -0.980657 96 71 51
-0.775239 -1.100160 -0.870858 101 86 73
-0.785783 -1.136582 -0.795918 50 38 31
-0.796787 -1.110010 -0.343881 31 29 30
-0.702807 -1.107621 -0.297483 99 88 84
-0.790122 -1.102467 1.194772 88 78 76
-0.701213 -1.106468 1.250984 78 74 75
-0.705313 -1.103893 1.301952 32 21 15
-0.787526 -1.012297 -2.103143 14 4 3
-0.767742 -1.002309 -2.085498 14 4 3
-0.792754 -1.008397 -1.987580 8 4 3
-0.735213 -1.007274 -1.898937 5 4 2
-0.700146 -1.009662 -1.203878 159 132 102
-0.703140 -1.003469 -1.184412 176 155 134
-0.728821 -1.002243 -1.072084 163 137 110
-0.748431 -1.005783 -0.978871 158 135 111
-0.774176 -1.005648 -0.877019 163 144 123
-0.798863 -1.004847 -0.795574 127 107 88
-0.787309 -1.001814 -0.307643 185 181 170
-0.768831 -1.003144 -0.298485 195 179 157
-0.707065 -1.003885 -0.173120 144 126 126
-0.790924 -1.000285 1.194452 94 85 80
-0.702702 -1.010550 1.250209 85 81 82
-0.707066 -1.061191 1.300196 35 25 16
-0.797510 -0.912221 -2.118690 19 5 4
-0.780114 -0.904294 -2.082966 19 5 2
-0.797052 -0.918405 -1.997523 15 4 2
-0.723317 -0.903874 -1.897725 13 5 3
-0.703520 -0.957012 -1.200474 158 129 95
-0.702554 -0.912219 -1.122722 201 182 165
-0.707267 -0.915556 -1.095525 189 175 162
-0.760421 -0.919800 -0.927972 84 67 59
-0.768548 -0.903601 -0.890639 171 149 128
-0.799404 -0.909767 -0.796439 188 171 153
-0.794077 -0.954998 -0.309209 186 182 171
-0.700127 -0.929574 -0.236669 190 178 164
-0.708702 -0.908183 -0.198740 139 121 109
-0.794166 -0.900024 1.194349 111 102 95
-0.701851 -0.904346 1.250655 99 95 94
-0.721239 -0.802568 -2.606191 230 192 127
-0.767153 -0.805415 -2.501048 34 9 0
-0.794802 -0.804814 -2.491628 208 165 87
-0.780006 -0.832536 -2.399698 83 89 61
-0.798434 -0.823850 -2.282936 80 73 55
-0.766773 -0.830249 -2.193128 19 15 5
-0.733429 -0.831575 -2.098526 190 171 134
-0.768803 -0.805377 -1.989542 45 36 29
-0.710383 -0.810869 -1.893845 17 6 4
-0.740725 -0.843031 -1.759625 147 122 96
-0.764162 -0.856962 -1.327928 205 181 157
-0.702415 -0.889884 -1.101412 201 183 164
-0.700146 -0.854234 -1.060166 209 197 183
-0.705602 -0.836951 -0.994760 221 214 204
-0.723177 -0.805300 -0.868064 225 218 213
-0.740657 -0.808288 -0.796708 228 227 223
-0.785302 -0.809666 -0.603285 254 252 255
-0.779633 -0.800171 -0.533817 253 253 253
-0.795513 -0.805554 -0.401003 253 253 253
-0.798139 -0.805107 -0.316726 255 255 255
-0.762298 -0.802115 -0.262922 228 234 232
-0.745835 -0.823696 -0.198871 146 151 157
-0.775234 -0.810217 0.255504 228 224 212
-0.793992 -0.867880 0.331588 224 218 204
-0.798193 -0.800889 1.193216 117 108 101
-0.702788 -0.800956 1.250568 106 102 101
-0.700385 -0.728169 -2.653908 255 232 136
-0.766944 -0.732313 -2.500122 82 49 5
-0.794203 -0.702280 -2.489376 244 200 111
-0.702454 -0.792962 -2.397310 148 119 59
-0.775229 -0.797668 -2.298476 145 127 85
-0.740634 -0.788202 -2.195974 242 233 202
-0.731290 -0.791302 -2.098212 3 4 0
-0.747368 -0.794942 -1.999812 168 157 126
-0.712524 -0.790649 -1.899172 22 14 11
-0.706501 -0.799235 -0.923731 228 223 218
-0.702826 -0.755456 -0.817817 252 252 252
-0.702039 -0.763045 -0.717696 218 215 206
-0.702637 -0.752133 -0.662167 252 252 252
-0.777409 -0.796030 -0.500434 253 253 253
-0.795227 -0.786618 -0.403290 253 253 253
-0.799783 -0.785252 -0.325036 253 253 253
-0.794081 -0.787283 -0.294126 252 254 253
-0.714320 -0.769074 -0.185736 223 225 224
-0.779724 -0.713617 0.231002 229 225 214
-0.796464 -0.700737 1.193698 120 113 105
-0.799045 -0.700231 1.212171 61 41 34
-0.767753 -0.601645 -2.502291 88 62 21
-0.794218 -0.600283 -2.489037 217 160 79
-0.700418 -0.609810 -2.388998 229 186 107
-0.769728 -0.608545 -2.290870 196 195 183
-0.733188 -0.697463 -2.198921 42 28 27
-0.733598 -0.698073 -0.547187 252 252 252
-0.797722 -0.668797 0.230137 229 225 213
-0.798688 -0.650667 1.199019 108 100 98
-0.739733 -0.600839 1.250966 30 24 28
-0.711594 -0.602016 1.303129 106 62 46
-0.769829 -0.500666 -2.508662 155 116 57
-0.795196 -0.513411 -2.491750 249 193 96
-0.706021 -0.560807 -2.397071 253 253 253
-0.766307 -0.507978 -2.299262 255 255 255
-0.771260 -0.516266 -2.135157 254 254 254
-0.781111 -0.500647 1.199130 0 55 109
-0.700980 -0.500749 1.232494 0 51 110
-0.703903 -0.585378 1.300974 11 8 15
-0.783774 -0.412546 -2.503776 229 173 95
-0.795517 -0.411301 -2.492363 232 178 82
-0.703042 -0.429781 -2.392016 252 250 253
-0.753397 -0.495005 -2.299103 255 255 255
-0.702943 -0.402063 -2.180183 11 16 5
-0.777816 -0.403405 1.198469 104 168 230
-0.702603 -0.402866 1.229018 115 173 237
-0.770467 -0.310193 -2.510074 163 126 50
-0.793997 -0.308332 -2.487245 254 253 152
-0.792564 -0.302356 -2.352784 214 200 152
-0.745662 -0.303851 -2.295172 251 251 251
-0.726509 -0.301896 -2.187176 92 92 81
-0.708234 -0.300125 -2.096677 147 152 148
-0.769519 -0.301901 1.199870 96 178 224
-0.702468 -0.300439 1.224310 111 173 208
-0.767807 -0.206597 -2.501112 255 245 170
-0.794318 -0.206144 -2.487857 248 211 122
-0.789078 -0.208645 -2.347903 252 249 255
-0.704187 -0.225051 -2.298330 251 251 251
-0.798535 -0.207981 -2.136514 67 70 63
-0.772745 -0.209538 -2.082951 144 146 141
-0.758308 -0.201250 1.199083 0 68 121
-0.702152 -0.200025 1.219552 1 77 135
-0.755080 -0.104165 -2.509325 255 215 153
-0.794026 -0.103722 -2.486560 238 195 126
-0.798425 -0.102272 -2.346180 250 251 220
-0.799211 -0.109960 -2.269211 252 254 232
-0.733238 -0.101401 -2.177304 233 246 239
-0.765892 -0.109426 -2.087394 119 125 115
-0.741102 -0.102421 1.199304 1 80 137
-0.700725 -0.101540 1.214022 8 86 135
-0.767812 -0.001281 -2.500424 240 196 133
-0.793733 -0.001300 -2.485262 233 189 128
-0.796388 -0.008737 -2.345734 251 243 178
-0.762467 -0.004192 -2.166229 35 42 35
-0.766617 -0.008488 -2.085102 127 133 123
-0.717336 -0.000445 1.199958 71 137 197
-0.703344 -0.000098 1.206126 70 139 198
-0.701434 -0.029657 1.312206 26 13 7
-0.755114 0.086991 -2.508818 231 186 127
-0.793482 0.086491 -2.484150 228 182 123
-0.792603 0.097977 -2.340808 250 214 156
-0.772386 0.090290 -2.155473 23 22 18
-0.794735 0.092426 -2.080511 137 140 131
-0.714390 0.099199 1.199308 70 121 187
-0.701461 0.099778 1.206169 71 122 188
-0.754820 0.189963 -2.507514 221 176 121
-0.793802 0.189060 -2.484758 219 174 119
-0.713134 0.199460 -2.357500 199 163 131
-0.775938 0.195824 -2.152377 27 36 31
-0.787159 0.192879 -2.085656 111 114 105
-0.712355 0.197587 1.199320 69 67 70
-0.702535 0.197801 1.202900 70 68 71
-0.704895 0.184257 1.315270 9 21 45
-0.755105 0.293160 -2.508122 211 165 116
-0.793509 0.291561 -2.483459 208 165 114
-0.791142 0.299110 -2.348683 244 188 139
-0.784276 0.298547 -2.145071 29 30 25
-0.781843 0.293722 -2.088768 123 126 119
-0.723958 0.295845 1.198633 70 66 65
-0.700416 0.296720 1.208300 72 66 66
-0.720003 0.290443 1.303980 91 73 61
-0.754232 0.395907 -2.504905 197 154 109
-0.793217 0.394061 -2.482161 199 155 107
-0.725245 0.399750 -2.372658 182 147 119
-0.773548 0.388960 -2.152554 38 49 43
-0.770748 0.362120 -2.097595 131 136 129
-0.730811 0.398981 1.199952 71 66 63
-0.701476 0.399621 1.210644 70 64 64
-0.723865 0.342390 1.302155 92 74 62
-0.753938 0.498878 -2.503601 187 146 102
-0.792924 0.496562 -2.480862 188 145 102
-0.768492 0.499164 -2.365704 217 167 134
-0.773753 0.489279 -2.152418 59 59 57
-0.735487 0.419185 1.198351 71 66 63
-0.701301 0.419931 1.210812 68 63 60
-0.753686 0.587140 -2.502482 177 138 96
-0.792020 0.598602 -2.477663 179 137 95
-0.731644 0.599519 -2.368493 173 137 111
-0.779822 0.598858 -2.149067 47 53 49
-0.750433 0.595106 1.198539 55 48 42
-0.700199 0.594733 1.215494 55 48 42
-0.743148 0.693817 -2.518335 124 94 65
-0.790199 0.699675 -2.471615 172 130 90
-0.706302 0.699991 -2.368719 171 134 108
-0.786188 0.693374 -2.143493 44 40 37
-0.744146 0.694809 1.199437 54 47 41
-0.704464 0.694705 1.213011 51 46 40
-0.743420 0.797945 -2.518934 111 78 50
-0.789949 0.787298 -2.470505 166 124 82
-0.736693 0.798927 -2.359793 173 132 104
-0.792236 0.797944 -2.140091 27 29 28
-0.736895 0.797946 1.199824 50 45 41
-0.701501 0.797320 1.211098 51 44 38
-0.743734 0.887419 -2.519719 101 69 38
-0.797515 0.897155 -2.446326 171 126 84
-0.747224 0.899552 -2.383078 219 172 123
-0.734035 0.898800 -2.283687 226 178 138
-0.786918 0.812051 -2.146670 56 58 57
-0.753403 0.880705 -1.637136 216 220 219
-0.798166 0.899432 -1.547017 138 142 143
-0.719717 0.899244 -1.497901 217 222 218
-0.766304 0.899558 -1.398440 215 220 214
-0.785302 0.899858 -1.250222 215 224 219
-0.797199 0.896140 -1.194983 217 223 219
-0.778616 0.890101 -1.096604 218 224 220
-0.772401 0.884587 -0.998662 219 225 221
-0.732135 0.882362 1.198494 47 42 38
-0.703009 0.882592 1.208669 47 42 38
-0.799015 0.942561 -2.721440 184 141 107
-0.766676 0.969316 -2.600052 246 193 139
-0.742556 0.900860 -2.515712 99 65 34
-0.785313 0.912119 -2.409011 191 144 99
-0.736409 0.998012 -2.348411 168 160 145
-0.720506 0.998914 -2.284061 210 184 169
-0.720259 0.996090 -2.195663 178 154 128
-0.764242 0.901608 -1.640990 131 139 141
-0.747030 0.922171 -1.581622 133 138 141
-0.776569 0.928669 -1.497194 124 128 131
-0.799693 0.916529 -1.398055 110 119 118
-0.778393 0.903578 -1.297548 216 222 218
-0.715284 0.900788 -1.199650 215 221 217
-0.793016 0.909481 -1.093839 217 224 217
-0.736620 0.910315 -0.991092 216 222 218
-0.758971 0.953041 1.199750 55 50 44
-0.701190 0.941923 1.220590 55 50 44
-0.754502 1.006470 -2.511793 172 128 91
-0.792475 1.089873 -2.444931 215 187 175
-0.702327 1.098287 -2.331282 177 168 153
-0.707052 1.098311 -2.284372 217 191 176
-0.723894 1.093861 -2.194334 184 158 135
-0.787569 1.084717 0.002245 217 206 202
-0.747010 1.086711 0.109865 213 204 199
-0.744023 1.092786 0.217434 207 198 193
-0.743112 1.099803 1.199524 29 26 19
-0.706132 1.098391 1.210816 31 26 22
-0.717104 1.197430 -2.332235 177 165 151
-0.719366 1.197484 -2.293166 206 180 165
-0.795026 1.184659 -2.102756 224 212 200
-0.790410 1.198692 -2.002801 217 204 188
-0.707281 1.199590 -1.966504 220 206 195
-0.701917 1.162079 -1.803404 235 205 177
-0.705240 1.164628 -1.707389 230 201 171
-0.740405 1.199945 -1.608227 207 190 174
-0.716661 1.199765 -1.558507 204 187 171
-0.742485 1.199602 -1.405348 205 186 169
-0.709368 1.196311 -1.300727 201 184 166
-0.758396 1.194549 -1.200913 198 179 162
-0.791422 1.193370 -1.138527 194 177 159
-0.798760 1.193032 -1.000817 170 157 140
-0.719401 1.199675 -0.901707 205 183 170
-0.724351 1.199565 -0.878193 203 181 168
-0.707757 1.199516 -0.703333 184 171 154
-0.732119 1.198770 -0.600056 180 166 153
-0.711106 1.199092 -0.501606 200 184 161
-0.701036 1.198287 -0.403591 195 180 161
-0.702321 1.196531 -0.302708 192 177 158
-0.708488 1.194417 -0.204977 186 173 154
-0.705494 1.192916 -0.101963 182 169 152
-0.780434 1.190428 -0.004617 175 162 146
-0.799668 1.189336 0.015257 175 162 145
-0.700871 1.199847 0.103100 185 169 156
-0.727723 1.199449 0.211765 178 164 151
-0.727797 1.198485 0.309200 174 161 145
-0.700334 1.154529 0.468517 160 139 120
-0.703258 1.154491 0.505852 159 138 119
-0.712393 1.153661 0.605364 157 136 119
-0.717714 1.154971 0.706529 155 134 115
-0.726007 1.154651 0.807299 153 132 111
-0.735313 1.153781 0.908100 150 129 108
-0.703234 1.199906 1.095097 140 123 105
-0.756468 1.197563 1.198180 24 21 16
-0.704189 1.196624 1.215254 25 22 17
-0.735883 1.267040 -2.300445 188 179 166
-0.728087 1.298369 -2.232767 234 231 226
-0.791613 1.297827 -2.174303 230 225 219
-0.716023 1.230274 -2.000333 251 234 226
-0.702970 1.228529 -1.905244 247 228 221
-0.724113 1.227081 -1.810341 242 224 212
-0.701268 1.223467 -1.702448 238 219 204
-0.713230 1.223398 -1.600890 233 212 195
-0.700177 1.221119 -1.501461 230 207 191
-0.718327 1.220973 -1.403621 224 203 182
-0.743022 1.221817 -1.304486 218 196 175
-0.799868 1.224834 -1.245842 217 195 174
-0.707546 1.205074 -1.101259 208 186 172
-0.700064 1.202088 -1.001922 207 185 171
-0.733606 1.200289 -0.906126 205 184 167
-0.795204 1.203376 -0.809890 202 180 167
-0.793135 1.213186 -0.759681 193 174 160
-0.704266 1.208127 -0.603006 211 193 171
-0.701829 1.211705 -0.503704 209 191 167
-0.707662 1.214452 -0.403465 206 190 167
-0.702483 1.214071 -0.305053 204 188 165
-0.704266 1.211250 -0.204450 201 184 164
-0.792136 1.203900 -0.101585 195 171 147
-0.781455 1.203391 -0.003358 189 169 144
-0.770790 1.202880 0.094713 185 165 140
-0.758727 1.201487 0.199788 180 162 138
-0.748102 1.200975 0.297463 178 157 136
-0.738867 1.202285 0.394924 175 154 135
-0.770302 1.208853 0.498735 164 142 118
-0.774109 1.213784 0.598250 158 134 108
-0.702367 1.217166 0.699868 156 132 106
-0.743245 1.215017 0.796865 147 121 96
-0.701694 1.214541 0.834159 145 119 94
-0.704124 1.267320 0.952053 122 105 89
-0.703728 1.285464 1.066686 97 90 82
-0.701556 1.273556 1.101373 96 89 79
-0.705120 1.230720 1.205837 102 99 91
-0.793499 1.313823 -2.219328 231 226 220
-0.759804 1.300436 -2.175283 231 226 220
-0.793136 1.320601 -1.807272 199 183 167
-0.799707 1.325215 -1.704995 175 162 143
-0.789424 1.357524 -1.634803 168 152 136
-0.609968 -1.403169 -1.845633 37 20 10
-0.604585 -1.402696 -1.791058 37 20 10
-0.601019 -1.401076 -1.694742 35 18 8
-0.610901 -1.400439 -1.509615 32 18 9
-0.604930 -1.400405 -1.499275 31 17 8
-0.605029 -1.402427 -1.392973 28 14 8
-0.600803 -1.409325 -1.297336 24 10 7
-0.621222 -1.407561 -1.193090 26 11 4
-0.641139 -1.404940 -1.094613 28 14 5
-0.678902 -1.410773 -0.997945 39 22 12
-0.697583 -1.408285 -0.284311 44 34 35
-0.688277 -1.400093 -0.192900 61 46 41
-0.611353 -1.407636 -0.088672 210 177 146
-0.606614 -1.405890 0.065633 192 160 135
-0.624652 -1.404876 0.107479 184 152 127
-0.608108 -1.401869 0.221641 183 149 122
-0.603622 -1.400911 0.360548 155 128 101
-0.609296 -1.401643 0.450447 139 111 87
-0.602647 -1.403175 0.527420 131 105 82
-0.604918 -1.405466 0.622990 120 93 72
-0.609333 -1.400145 0.747915 114 87 66
-0.623430 -1.400073 0.838735 109 85 61
-0.624442 -1.402296 0.904243 106 81 59
-0.600408 -1.403349 1.063920 95 70 50
-0.637934 -1.401142 1.194079 88 64 40
-0.612976 -1.401227 1.207917 87 63 39
-0.699529 -1.409229 1.304681 8 2 2
-0.696336 -1.371346 -2.043016 88 65 51
-0.695132 -1.310232 -1.932870 107 85 71
-0.649095 -1.304422 -1.896102 105 85 74
-0.684585 -1.351832 -1.799685 105 89 74
-0.694125 -1.362126 -1.688880 118 101 85
-0.694327 -1.376615 -1.586545 126 103 85
-0.696374 -1.375200 -1.498062 136 113 95
-0.698545 -1.374590 -1.396752 169 143 120
-0.650238 -1.375074 -1.299737 62 45 37
-0.611385 -1.370121 -1.196630 49 36 30
-0.644822 -1.374021 -1.092880 81 64 54
-0.697095 -1.382991 -0.994678 77 58 44
-0.686890 -1.350525 -0.899306 38 27 21
-0.698509 -1.362514 -0.790076 23 12 10
-0.698625 -1.303685 -0.432194 14 8 8
-0.697512 -1.370171 -0.305860 83 72 68
-0.698941 -1.301366 -0.273366 95 83 71
-0.699526 -1.373332 -0.106889 227 208 166
-0.695999 -1.374271 -0.002927 220 198 159
-0.694761 -1.375635 0.095466 216 194 155
-0.695544 -1.378953 0.197100 215 193 154
-0.695662 -1.381168 0.296436 204 180 142
-0.691171 -1.382457 0.398034 192 172 135
-0.694144 -1.384302 0.498443 176 154 117
-0.693988 -1.382260 0.598382 169 145 111
-0.688426 -1.376671 0.698352 158 134 106
-0.684143 -1.380403 0.799457 151 127 99
-0.684869 -1.371085 0.898255 135 114 95
-0.602040 -1.359879 0.996621 127 106 87
-0.668285 -1.360069 1.099864 126 104 83
-0.672527 -1.363082 1.198792 119 96 79
-0.605027 -1.315229 1.259754 48 42 42
-0.607736 -1.358983 1.374006 23 8 3
-0.683632 -1.293281 -2.001419 32 15 8
-0.690514 -1.276132 -1.900454 99 85 77
-0.698904 -1.202702 -1.894834 83 69 66
-0.631192 -1.200055 -1.479033 14 5 6
-0.611925 -1.237694 -1.316996 27 16 12
-0.618657 -1.223016 -1.288154 25 14 10
-0.651884 -1.207427 -1.192214 28 15 9
-0.673813 -1.201196 -1.082500 27 13 10
-0.693166 -1.203376 -0.998404 29 15 12
-0.698115 -1.264109 -0.402929 18 12 12
-0.695639 -1.261769 -0.301218 64 60 61
-0.699723 -1.270305 -0.285178 91 78 69
-0.618603 -1.204540 -0.190035 38 28 18
-0.601123 -1.210331 1.261957 68 64 63
-0.600932 -1.207454 1.326268 43 30 24
-0.697835 -1.100836 -1.935736 84 67 60
-0.693965 -1.102322 -1.894060 90 75 68
-0.618675 -1.100367 -1.710428 157 144 132
-0.641755 -1.110758 -1.697476 17 9 6
-0.650650 -1.101860 -1.597832 65 55 54
-0.623653 -1.103867 -1.458434 159 141 119
-0.640856 -1.106554 -1.390054 151 142 135
-0.671779 -1.108053 -1.294727 97 81 68
-0.697138 -1.101852 -1.174197 100 79 66
-0.685925 -1.169243 -1.081121 47 34 26
-0.698804 -1.184523 -0.990435 28 14 11
-0.699451 -1.141669 -0.310853 19 17 18
-0.653997 -1.111669 -0.247492 70 66 67
-0.604006 -1.197581 -0.190300 36 26 17
-0.695626 -1.104285 1.198697 38 25 17
-0.602566 -1.100212 1.261631 75 71 72
-0.651380 -1.107685 1.303867 44 30 27
-0.684811 -1.005463 -2.033061 16 5 3
-0.635761 -1.006705 -1.997470 16 5 3
-0.698509 -1.011750 -1.899760 102 84 70
-0.640625 -1.009408 -1.700396 172 152 126
-0.628222 -1.029059 -1.692576 203 190 181
-0.642556 -1.004993 -1.586506 215 198 180
-0.645659 -1.000243 -1.445752 167 147 123
-0.644745 -1.008529 -1.379130 180 159 138
-0.660876 -1.008713 -1.294396 189 168 149
-0.697268 -1.086889 -1.164552 142 126 111
-0.627276 -1.000995 -0.221262 100 99 95
-0.613040 -1.011485 -0.199803 125 109 96
-0.699477 -1.015900 1.198094 42 29 20
-0.603202 -1.049927 1.261468 76 72 73
-0.615332 -1.042680 1.319839 68 54 43
-0.695431 -0.909009 -2.026876 19 5 2
-0.648009 -0.903249 -1.996967 20 6 3
-0.684919 -0.908590 -1.897790 15 5 3
-0.616906 -0.906470 -1.710811 199 179 150
-0.604957 -0.932073 -1.669604 213 193 169
-0.605575 -0.950989 -1.575901 210 190 166
-0.600373 -0.927218 -1.497560 176 158 138
-0.626929 -0.902821 -1.397722 206 185 158
-0.663474 -0.913180 -1.282379 187 170 153
-0.697697 -0.912874 -1.142259 201 183 164
-0.683671 -0.900366 -0.226239 192 182 170
-0.601286 -0.912147 -0.199616 191 184 174
-0.603060 -0.902243 1.279415 100 96 97
-0.620658 -0.915110 1.307086 75 61 50
-0.698710 -0.813004 -2.628229 238 201 123
-0.684719 -0.808777 -2.535368 52 51 47
-0.694182 -0.801197 -2.458283 228 183 115
-0.689071 -0.806075 -2.340711 219 201 180
-0.693871 -0.808434 -2.263931 249 239 211
-0.673782 -0.810905 -2.198937 157 141 120
-0.622748 -0.800288 -2.074725 9 7 2
-0.623392 -0.842268 -1.996477 53 46 40
-0.661803 -0.805685 -1.898875 14 3 1
-0.604064 -0.898142 -1.703457 207 186 155
-0.641452 -0.811388 -1.610631 81 60 55
-0.615389 -0.834614 -1.587946 80 61 55
-0.605318 -0.875672 -1.411746 216 199 175
-0.600321 -0.837434 -1.378231 218 201 175
-0.602281 -0.811379 -1.297499 227 211 188
-0.615421 -0.802846 -1.190158 242 235 218
-0.647713 -0.808392 -1.096125 231 225 214
-0.673113 -0.806495 -0.998547 250 252 251
-0.698230 -0.810503 -0.899412 250 252 251
-0.635187 -0.801377 -0.516452 239 239 239
-0.697046 -0.801518 -0.303989 221 221 213
-0.696542 -0.802006 -0.238211 228 242 243
-0.653506 -0.845233 -0.196508 194 181 163
-0.684745 -0.802118 1.199725 50 36 25
-0.605258 -0.800526 1.280164 104 102 105
-0.622726 -0.804555 1.300022 88 75 67
-0.693983 -0.738481 -2.651033 255 230 137
-0.697975 -0.702895 -2.552145 32 10 0
-0.696094 -0.703403 -2.464741 222 178 102
-0.622003 -0.763871 -2.353815 196 196 185
-0.685120 -0.799901 -2.280627 100 100 84
-0.604231 -0.737864 -2.188487 115 113 93
-0.604258 -0.758115 -2.097694 14 20 20
-0.602846 -0.736077 -1.974450 17 10 2
-0.614939 -0.778444 -1.899652 169 157 141
-0.605412 -0.764263 -1.797696 75 67 49
-0.610054 -0.782177 -1.626243 38 25 8
-0.609755 -0.771450 -1.575778 85 62 56
-0.601104 -0.798602 -1.226432 247 239 226
-0.600978 -0.791940 -1.191530 251 243 231
-0.601853 -0.751693 -1.038011 210 198 184
-0.602415 -0.728616 -0.901625 253 253 253
-0.622847 -0.734031 -0.875167 253 253 253
-0.617728 -0.702368 -0.700407 255 255 255
-0.690814 -0.737609 -0.605160 255 255 255
-0.693226 -0.784507 -0.504711 253 253 253
-0.696588 -0.780152 -0.406857 253 253 253
-0.699823 -0.775284 -0.303780 253 253 253
-0.697259 -0.778438 -0.263228 253 253 253
-0.630026 -0.781153 -0.199963 228 239 241
-0.600723 -0.700388 1.279644 108 106 109
-0.671333 -0.735791 1.300496 86 72 63
-0.697535 -0.658000 -2.549455 249 217 129
-0.693181 -0.603241 -2.403120 216 185 132
-0.646037 -0.611064 -2.389875 254 228 143
-0.678739 -0.601588 -2.297455 255 255 255
-0.651189 -0.610557 -2.197360 254 255 250
-0.611681 -0.699608 -0.709115 255 255 255
-0.604259 -0.699244 -0.693758 255 255 255
-0.602002 -0.699822 -0.203259 244 244 244
-0.673558 -0.600974 1.277113 38 28 36
-0.605506 -0.611556 1.300025 49 36 45
-0.690364 -0.500197 -2.451917 252 252 252
-0.688144 -0.501832 -2.385505 253 253 253
-0.686048 -0.503407 -2.293774 251 251 251
-0.610391 -0.502825 -2.199794 251 251 251
-0.600264 -0.549505 -2.096010 198 164 128
-0.603561 -0.500011 1.271120 1 74 135
-0.610968 -0.523122 1.300606 31 29 34
-0.685417 -0.404836 -2.479088 231 188 94
-0.604271 -0.402528 -2.394027 250 230 153
-0.663572 -0.412976 -2.298626 250 251 245
-0.608373 -0.408680 -2.199095 251 251 251
-0.658134 -0.405335 -2.095806 98 102 101
-0.604406 -0.401091 1.265855 12 105 189
-0.603885 -0.402963 1.301654 136 213 255
-0.695073 -0.308281 -2.513513 249 213 117
-0.630392 -0.304385 -2.496490 253 243 139
-0.604646 -0.361312 -2.395443 253 253 253
-0.607412 -0.307464 -2.297552 252 250 253
-0.606427 -0.318413 -2.198508 251 251 251
-0.637633 -0.305932 -2.095834 127 128 120
-0.625352 -0.318623 -1.995156 152 146 130
-0.686995 -0.300101 1.229950 102 143 163
-0.605823 -0.334148 1.302874 10 126 211
-0.690651 -0.208893 -2.552673 232 208 184
-0.600986 -0.274864 -2.497694 231 194 119
-0.692450 -0.203077 -2.336891 255 246 222
-0.697670 -0.202946 -2.296894 251 251 251
-0.600677 -0.296418 -2.197934 251 251 250
-0.636720 -0.207109 -2.096003 109 114 110
-0.600660 -0.203413 1.257289 2 87 152
-0.694301 -0.213223 1.314896 27 14 8
-0.690618 -0.105096 -2.552323 212 189 147
-0.688278 -0.105331 -2.467257 248 216 177
-0.691539 -0.100284 -2.340970 252 223 181
-0.682359 -0.170512 -2.296481 251 251 251
-0.694080 -0.113041 -2.143182 254 254 252
-0.637009 -0.109762 -2.095220 94 95 89
-0.630921 -0.100082 1.240527 24 101 147
-0.693253 -0.102702 1.316359 21 12 6
-0.690058 -0.001222 -2.550043 196 173 132
-0.694638 -0.011229 -2.475810 231 198 158
-0.691564 -0.010045 -2.347393 240 207 166
-0.694805 -0.002802 -2.143321 254 254 254
-0.643182 -0.000447 -2.091851 96 100 99
-0.699698 -0.001522 1.197937 94 139 198
-0.601815 -0.003039 1.247099 95 160 226
-0.698498 -0.047832 1.313759 26 13 7
-0.689278 0.087712 -2.546986 171 151 116
-0.687957 0.097775 -2.485300 207 173 138
-0.691959 0.093714 -2.356037 218 182 146
-0.699348 0.091933 -2.138157 253 255 250
-0.644159 0.093280 -2.090520 91 92 87
-0.699913 0.040795 1.198658 51 92 144
-0.691556 0.099994 1.209779 72 123 189
-0.666679 0.040872 1.300191 38 46 46
-0.687931 0.191175 -2.541816 152 133 101
-0.694828 0.195302 -2.495637 187 155 126
-0.692009 0.198101 -2.363535 199 164 134
-0.688213 0.198408 -2.132588 144 146 141
-0.647442 0.198374 -2.089422 91 96 92
-0.675329 0.191356 1.112145 116 98 84
-0.602628 0.199471 1.237156 71 68 75
-0.602535 0.185412 1.347191 8 22 48
-0.688160 0.295000 -2.542430 138 118 91
-0.622886 0.298984 -2.487462 174 148 123
-0.692000 0.289938 -2.369951 188 153 125
-0.690029 0.289506 -2.129894 126 127 122
-0.650938 0.299169 -2.058716 123 122 114
-0.658903 0.227770 1.120496 119 100 86
-0.602319 0.298860 1.244057 65 60 64
-0.643266 0.298296 1.327114 116 99 89
-0.687864 0.398678 -2.541117 125 108 82
-0.628894 0.397530 -2.497061 169 141 117
-0.692637 0.382583 -2.378647 181 147 120
-0.688655 0.392384 -2.131906 138 140 135
-0.651618 0.399490 -2.059878 118 114 103
-0.666329 0.399914 1.222363 70 64 64
-0.678740 0.399881 1.307793 118 101 93
-0.654406 0.498929 -2.530030 119 103 78
-0.612646 0.451187 -2.498817 152 124 101
-0.643485 0.496804 -2.394715 159 135 109
-0.698944 0.493496 -2.139383 255 255 251
-0.651653 0.498244 -2.061521 117 117 109
-0.652940 0.499687 -1.992811 137 131 115
-0.601913 0.421107 1.244851 68 64 65
-0.642239 0.492051 1.308517 119 102 92
-0.622306 0.598688 -2.522729 116 99 79
-0.623285 0.597690 -2.497781 154 126 104
-0.646988 0.598444 -2.392378 155 131 105
-0.698056 0.593076 -2.140840 254 254 252
-0.654821 0.598956 -2.020725 141 135 119
-0.656250 0.593393 -1.992428 140 133 117
-0.604641 0.599906 1.246455 54 49 43
-0.657070 0.576392 1.300990 117 102 95
-0.605754 0.698689 -2.516468 113 96 76
-0.610528 0.698075 -2.496654 152 122 98
-0.695043 0.697426 -2.369546 171 135 109
-0.698398 0.690709 -2.141248 243 248 244
-0.665649 0.698544 -2.002676 138 132 118
-0.669935 0.699782 -1.961645 137 129 116
-0.600935 0.693470 1.246923 54 47 41
-0.625702 0.666827 1.324865 139 121 110
-0.686198 0.797974 -2.534129 113 91 67
-0.638256 0.794598 -2.498145 154 122 97
-0.643366 0.798145 -2.354320 175 135 109
-0.697360 0.799546 -2.144762 195 210 217
-0.667392 0.796568 -2.030248 122 114 103
-0.669185 0.776991 -1.999996 138 130 117
-0.666189 0.744629 -1.875419 137 129 116
-0.698136 0.743298 1.199910 124 110 97
-0.603369 0.797622 1.245099 49 44 38
-0.620920 0.720969 1.302055 117 102 95
-0.668517 0.897469 -2.525071 119 93 66
-0.602642 0.892983 -2.443289 122 96 71
-0.617259 0.897362 -2.332770 219 171 122
-0.608798 0.897413 -2.237194 214 167 127
-0.610247 0.891980 -2.199357 234 182 125
-0.645196 0.815311 -2.089516 76 76 76
-0.651413 0.899349 -1.603839 217 223 219
-0.686658 0.899363 -1.567096 215 224 219
-0.686958 0.898008 -1.495093 215 220 216
-0.696297 0.897305 -1.396790 213 218 212
-0.685567 0.896572 -1.292651 213 218 212
-0.695537 0.899982 -1.169128 215 222 215
-0.692021 0.894802 -1.098778 215 222 216
-0.678432 0.891230 -0.995910 216 222 218
-0.615399 0.890909 -0.894080 211 216 210
-0.603301 0.883064 1.243125 51 43 40
-0.664883 0.907326 -2.511417 121 93 71
-0.674069 0.900702 -2.489407 120 92 70
-0.638995 0.999633 -2.309069 172 164 151
-0.607974 0.991750 -2.297752 173 167 153
-0.652495 0.996536 -2.190251 203 185 165
-0.695489 0.905982 -1.631371 217 223 221
-0.689658 0.931772 -1.568485 215 221 217
-0.683252 0.930212 -1.498683 214 220 216
-0.687223 0.916205 -1.395530 213 220 213
-0.683127 0.908955 -1.296166 212 219 212
-0.693104 0.901762 -1.195659 215 221 217
-0.689487 0.901576 -1.096609 213 220 213
-0.682086 0.905707 -0.995749 213 220 213
-0.613017 0.915470 -0.889570 202 207 201
-0.601069 0.920425 1.253641 56 51 45
-0.602412 0.933972 1.321039 125 108 99
-0.654525 1.098863 -2.313960 180 170 158
-0.607155 1.098192 -2.294471 182 174 161
-0.622362 1.099629 -2.178665 209 191 171
-0.655350 1.095563 0.012709 218 207 203
-0.676860 1.093211 0.117714 214 203 199
-0.681381 1.095820 0.207966 209 200 195
-0.605771 1.097335 1.244380 31 26 22
-0.608232 1.037797 1.313617 112 103 98
-0.668494 1.195914 -2.313087 180 168 154
-0.635746 1.197540 -2.296927 180 170 158
-0.689696 1.184869 -2.111325 227 215 200
-0.691524 1.189760 -2.018164 225 212 203
-0.613158 1.199760 -1.927522 220 208 196
-0.640812 1.161176 -1.802757 235 208 181
-0.608753 1.199776 -1.722777 219 203 188
-0.697022 1.199817 -1.609870 208 191 175
-0.663315 1.199590 -1.512636 203 186 170
-0.639225 1.198889 -1.400039 208 189 172
-0.645362 1.193888 -1.300483 203 184 167
-0.646345 1.191672 -1.201793 199 182 164
-0.600617 1.199667 -1.102762 179 162 146
-0.644048 1.199474 -1.001790 175 157 143
-0.699459 1.199430 -0.904295 204 182 168
-0.646098 1.192628 -0.800574 169 155 142
-0.600982 1.198917 -0.701643 185 173 157
-0.615611 1.190754 -0.604253 213 195 173
-0.601732 1.199190 -0.501279 200 185 164
-0.602955 1.199086 -0.402482 197 182 161
-0.601933 1.197838 -0.300452 193 178 159
-0.605396 1.195640 -0.202352 190 175 156
-0.682431 1.194070 -0.103886 181 168 151
-0.697472 1.193933 -0.089089 180 167 151
-0.652645 1.161039 0.001469 171 149 126
-0.663184 1.159887 0.111591 168 146 123
-0.672155 1.159095 0.209858 165 144 123
-0.681172 1.158292 0.308481 163 142 123
-0.692203 1.156394 0.407077 161 140 121
-0.680724 1.154387 0.510892 160 139 120
-0.689995 1.153503 0.611426 158 137 120
-0.695729 1.154052 0.700481 156 135 116
-0.681036 1.153666 0.810489 153 132 111
-0.688927 1.153076 0.900601 151 130 111
-0.663451 1.199682 1.095599 141 122 105
-0.655063 1.199080 1.171295 138 120 100
-0.606361 1.194072 1.246441 27 22 19
-0.646520 1.164663 1.301384 84 76 73
-0.695179 1.264972 -2.307143 140 134 122
-0.683416 1.299981 -2.222878 233 230 225
-0.698898 1.289110 -2.184811 233 230 225
-0.609030 1.223521 -2.001132 252 237 230
-0.608266 1.222918 -1.901507 248 231 223
-0.607192 1.221734 -1.806759 244 226 216
-0.621227 1.220591 -1.700212 239 220 206
-0.603964 1.217576 -1.603960 236 217 202
-0.623961 1.216220 -1.501399 230 209 190
-0.643636 1.216219 -1.406332 225 203 182
-0.693276 1.219016 -1.355467 221 200 179
-0.612636 1.205121 -1.202327 212 189 173
-0.603557 1.203578 -1.107035 209 188 171
-0.606774 1.200535 -1.004300 205 184 167
-0.637748 1.200170 -0.970886 205 183 169
-0.696722 1.212783 -0.837141 196 174 163
-0.603777 1.225545 -0.705899 216 200 175
-0.626836 1.205313 -0.603074 213 195 173
-0.643786 1.211112 -0.500482 209 191 169
-0.656869 1.212327 -0.400996 207 189 169
-0.669334 1.212641 -0.300949 204 186 164
-0.680522 1.211146 -0.200092 200 183 163
-0.690719 1.209559 -0.106769 197 180 160
-0.699651 1.208700 -0.028330 193 178 159
-0.655050 1.214183 0.098426 189 173 157
-0.693266 1.213997 0.197030 184 168 152
-0.698362 1.213972 0.210178 184 168 152
-0.615926 1.204826 0.300070 170 153 135
-0.622955 1.205596 0.411391 167 150 132
-0.629105 1.206269 0.508796 165 148 130
-0.698876 1.213809 0.698928 159 137 116
-0.634727 1.221605 0.797241 155 131 107
-0.628975 1.213934 0.899652 143 117 92
-0.618950 1.263961 0.996542 120 104 88
-0.605499 1.291264 1.096100 96 89 79
-0.604300 1.290083 1.104070 96 89 79
-0.603289 1.249440 1.207709 92 85 75
-0.696721 1.301086 -2.221399 233 230 225
-0.695154 1.301200 -1.801247 204 188 175
-0.699478 1.315375 -1.707957 182 167 148
-0.696715 1.364418 -1.643200 171 158 141
-0.517623 -1.407364 -2.085288 58 47 45
-0.502483 -1.402206 -1.990430 26 15 11
-0.504253 -1.403948 -1.899576 24 11 5
-0.521788 -1.404532 -1.789118 25 11 8
-0.516700 -1.406108 -1.694722 19 8 6
-0.508448 -1.404412 -1.588248 17 7 6
-0.533901 -1.401775 -1.499385 21 10 6
-0.559396 -1.405401 -1.397038 19 8 6
-0.584647 -1.407289 -1.299297 23 9 8
-0.598151 -1.405920 -0.252432 43 33 32
-0.533516 -1.403968 -0.108928 222 202 185
-0.502366 -1.408976 -0.011435 203 169 141
-0.514424 -1.407516 0.009840 197 166 138
-0.504798 -1.407072 0.170059 185 151 124
-0.527872 -1.404551 0.212291 187 153 125
-0.501914 -1.401445 0.309166 180 149 121
-0.516918 -1.400096 0.497981 145 115 91
-0.506212 -1.400590 0.586511 130 103 80
-0.506742 -1.401119 0.695508 117 90 69
-0.520873 -1.400108 0.712912 111 84 63
-0.510955 -1.400123 0.813096 110 86 62
-0.513593 -1.403032 0.914680 105 80 60
-0.518148 -1.405043 1.015581 99 74 54
-0.526517 -1.405250 1.114709 93 68 48
-0.515218 -1.400872 1.280638 132 115 99
-0.508925 -1.401116 1.304512 40 29 23
-0.591549 -1.350129 -2.007429 75 60 55
-0.598656 -1.304678 -1.951145 74 60 57
-0.591569 -1.360788 -1.885949 89 72 65
-0.594081 -1.371937 -1.799606 88 75 67
-0.598947 -1.369172 -1.692360 66 49 41
-0.560883 -1.370379 -1.598370 48 35 29
-0.548616 -1.365806 -1.494981 40 30 28
-0.575409 -1.356678 -1.399272 44 33 29
-0.591085 -1.368767 -1.299763 48 37 33
-0.579604 -1.365328 -1.193266 39 29 27
-0.599415 -1.321045 -1.098979 36 21 14
-0.599099 -1.344499 -0.300274 67 63 63
-0.597064 -1.304769 -0.242168 89 80 73
-0.597614 -1.372781 -0.101183 229 213 179
-0.593991 -1.375199 -0.003143 219 203 167
-0.597639 -1.376923 0.097225 215 196 164
-0.594939 -1.377426 0.193285 214 190 154
-0.598181 -1.378205 0.299468 209 187 148
-0.589257 -1.382173 0.399888 195 175 140
-0.597106 -1.382932 0.496218 189 166 132
-0.599282 -1.383033 0.597856 170 147 113
-0.590111 -1.382808 0.698762 157 134 103
-0.596474 -1.380816 0.797550 149 125 99
-0.593204 -1.373605 0.899182 139 118 101
-0.572652 -1.359647 0.999751 128 107 88
-0.548664 -1.366731 1.099905 120 101 86
-0.596825 -1.365866 1.199536 120 97 79
-0.500974 -1.334902 1.271482 44 36 34
-0.503482 -1.308915 1.311307 64 62 65
-0.551870 -1.292470 -2.004446 48 40 38
-0.590272 -1.228228 -1.925152 72 60 60
-0.598121 -1.208145 -1.831433 77 72 69
-0.513616 -1.255161 -1.791885 16 14 15
-0.523852 -1.297179 -1.691638 26 20 20
-0.538102 -1.288396 -1.594112 34 26 24
-0.595086 -1.227555 -0.300619 19 14 11
-0.594171 -1.250055 -0.249393 76 72 69
-0.500534 -1.260108 -0.198677 23 17 19
-0.525562 -1.272713 -0.078523 76 58 44
-0.500393 -1.202079 1.293417 66 64 65
-0.502966 -1.203078 1.308284 69 67 70
-0.593038 -1.100440 -1.902117 75 64 60
-0.593894 -1.185666 -1.818067 76 71 68
-0.554576 -1.107148 -1.784850 101 85 69
-0.571341 -1.101494 -1.675436 121 110 107
-0.591617 -1.104747 -1.594172 140 122 100
-0.532223 -1.101068 -0.215275 81 76 73
-0.502630 -1.130969 -0.177725 37 27 18
-0.501849 -1.107708 1.293726 71 69 70
-0.502686 -1.107911 1.305717 73 71 74
-0.513014 -1.002508 -2.078817 88 65 47
-0.598674 -1.072332 -1.900729 81 66 61
-0.597571 -1.006853 -1.859794 101 83 73
-0.562088 -1.000370 -1.780153 176 155 128
-0.580670 -1.010101 -1.665666 140 122 100
-0.598540 -1.070343 -1.582736 150 130 106
-0.566095 -1.004148 -0.218236 167 163 162
-0.534271 -1.001803 -0.186862 150 149 147
-0.504128 -1.010720 1.293799 77 75 78
-0.503493 -1.001116 1.304833 82 80 81
-0.503343 -0.901565 -2.118823 93 68 37
-0.596847 -0.910619 -2.018889 18 7 4
-0.590273 -0.907618 -1.967864 20 6 5
-0.590553 -0.907826 -1.825299 15 5 3
-0.583742 -0.906879 -1.798677 16 5 3
-0.585150 -0.903247 -1.695258 226 206 181
-0.599806 -0.940505 -1.554927 209 189 165
-0.596290 -0.908696 -1.484359 218 200 176
-0.596912 -0.903398 -0.217465 189 182 176
-0.595183 -0.914478 -0.197635 191 184 174
-0.503028 -0.904770 1.295246 92 90 91
-0.505963 -0.907733 1.305543 93 91 94
-0.530946 -0.800130 -2.429298 242 230 195
-0.502282 -0.805772 -2.367714 212 192 160
-0.590430 -0.801396 -2.201081 163 158 136
-0.521284 -0.803936 -2.100255 2 4 2
-0.592939 -0.803750 -2.058888 3 2 0
-0.596160 -0.835805 -1.987066 54 47 40
-0.599919 -0.813705 -1.853498 18 7 5
-0.505432 -0.822210 -1.798887 18 7 3
-0.544680 -0.804943 -1.600485 174 152 131
-0.595994 -0.800426 -1.560459 82 61 56
-0.531472 -0.800898 -1.487869 252 238 211
-0.577255 -0.807297 -1.388983 230 213 185
-0.596424 -0.806253 -1.287711 232 216 193
-0.599503 -0.802269 -1.185845 242 238 227
-0.594932 -0.802098 -1.096382 208 201 185
-0.599573 -0.808049 -0.314130 252 252 252
-0.594665 -0.801304 -0.207730 231 246 251
-0.580986 -0.830045 -0.199333 219 227 229
-0.500176 -0.844213 1.293438 96 94 95
-0.501730 -0.806106 1.308019 103 101 106
-0.585219 -0.701172 -2.433103 26 13 6
-0.546678 -0.700600 -2.390558 185 157 115
-0.597992 -0.732501 -2.213871 216 209 193
-0.580166 -0.725793 -2.196785 219 219 209
-0.516774 -0.726948 -2.099812 169 174 167
-0.559519 -0.702702 -1.990775 12 14 11
-0.533413 -0.757872 -1.898137 35 37 33
-0.512091 -0.766658 -1.797881 59 52 44
-0.500271 -0.771457 -1.635198 177 153 125
-0.589993 -0.700964 -1.549154 97 72 73
-0.534920 -0.703964 -1.487592 84 64 57
-0.504084 -0.750580 -1.315460 233 228 208
-0.520083 -0.743105 -1.237320 233 231 218
-0.514717 -0.718051 -1.160778 248 237 231
-0.544447 -0.722412 -1.092301 248 247 245
-0.590243 -0.731873 -0.998970 249 249 249
-0.599735 -0.729314 -0.877775 253 253 253
-0.599051 -0.732608 -0.796667 253 253 253
-0.597248 -0.700945 -0.688144 255 255 255
-0.597297 -0.721576 -0.590249 255 255 255
-0.596659 -0.786590 -0.401680 253 253 253
-0.599841 -0.780972 -0.303793 253 253 253
-0.599921 -0.780454 -0.297205 253 253 253
-0.553943 -0.798739 -0.198801 227 242 247
-0.541327 -0.706275 1.299133 105 104 110
-0.504270 -0.700793 1.309533 107 106 112
