ply
format ascii 1.0
element vertex 1209
property float x
property float y
property float z
property uchar red
property uchar green
property uchar blue
end_header
-0.142914 1.017811 -3.604366 123 122 118
-0.141193 1.014540 -3.500719 127 126 122
-0.103650 1.013656 -3.402338 125 124 120
-0.146213 1.011761 -3.301387 128 127 123
-0.111436 1.010364 -3.200991 124 123 119
-0.110792 1.009899 -3.100652 92 91 89
-0.132132 1.009025 -3.000886 120 119 117
-0.116250 1.011163 -2.902387 113 112 110
-0.128215 1.010916 -2.801626 106 105 103
-0.199623 1.010938 -2.774726 110 108 109
-0.107120 1.000475 0.802661 124 121 116
-0.188780 1.002523 0.901339 123 120 115
-0.185107 1.004548 1.000403 123 119 116
-0.134870 1.008032 1.100192 120 116 113
-0.198434 1.010426 1.201369 114 110 107
-0.178781 1.010206 1.302734 111 110 106
-0.104045 1.011352 1.402094 108 110 107
-0.107533 1.011676 1.508029 96 105 104
-0.130710 1.012105 1.600360 88 96 98
-0.100531 1.015523 1.721742 83 93 95
-0.111329 1.012249 1.816296 65 80 85
-0.108148 1.004493 1.901522 16 64 84
-0.181159 1.038347 2.399920 113 166 138
-0.172063 1.058395 2.461484 73 116 99
-0.163722 1.084153 2.539801 71 92 83
-0.129423 1.009150 2.659897 111 119 115
-0.107997 1.049078 2.740779 109 106 97
-0.114706 1.071673 2.800496 108 106 94
-0.108134 1.121317 2.577001 88 97 94
-0.110185 1.120553 2.616727 85 94 91
-0.021050 -1.700121 -3.050354 60 65 61
-0.039108 -1.700045 -2.892650 87 93 89
-0.097246 -1.705477 -0.302683 84 81 76
-0.090144 -1.706487 -0.202887 94 91 86
-0.094032 -1.707624 -0.101745 99 96 91
-0.095361 -1.707124 -0.000386 105 102 97
-0.084598 -1.707574 0.097329 103 99 96
-0.095579 -1.706897 0.197864 106 105 101
-0.080801 -1.704487 0.298200 105 103 99
-0.078937 -1.704752 0.398964 106 105 101
-0.084119 -1.702681 0.499783 108 107 103
-0.086195 -1.702896 0.598109 102 101 97
-0.096069 -1.702505 0.697307 102 101 97
-0.087032 -1.701704 0.798829 97 96 92
-0.093717 -1.702035 0.897480 93 92 88
-0.089504 -1.702488 0.999582 49 50 44
-0.092714 -1.700257 1.028082 62 61 57
-0.073756 -1.705485 1.149504 47 46 41
-0.094124 -1.719299 1.296258 85 86 81
-0.093288 -1.726899 1.399343 83 85 80
-0.088358 -1.729358 1.429971 82 84 79
-0.099425 -1.705033 1.597271 79 84 82
-0.056311 -1.706433 1.689990 73 87 87
-0.010759 -1.704504 1.780601 82 88 86
-0.071482 -1.702089 1.998794 37 39 36
-0.007206 -1.701119 2.066790 40 42 39
-0.040626 -1.701735 2.396728 43 45 42
-0.000954 -1.701463 2.412535 44 46 43
-0.002333 -1.677526 -3.103955 92 93 77
-0.019589 -1.635947 -3.064244 107 89 67
-0.048310 -1.636716 -2.990256 50 53 55
-0.084412 -1.628942 -2.859993 18 40 100
-0.096182 -1.687467 -2.796219 65 67 66
-0.095103 -1.694595 -2.696851 87 92 88
-0.098705 -1.693032 -2.596301 86 88 85
-0.092989 -1.697068 -2.491885 119 124 118
-0.098171 -1.692907 -2.394281 137 139 131
-0.008931 -1.691566 -2.300000 152 153 145
-0.052478 -1.688568 0.799151 66 65 61
-0.000071 -1.651077 0.893352 95 92 87
-0.007249 -1.653276 0.991395 90 89 84
-0.005810 -1.654242 1.092097 90 87 82
-0.003966 -1.653438 1.199338 88 87 82
-0.002848 -1.654840 1.284600 90 89 85
-0.000994 -1.653883 1.390723 93 92 88
-0.009714 -1.652513 1.489878 93 92 87
-0.008549 -1.653176 1.594389 93 92 88
-0.007640 -1.654307 1.684600 93 92 88
-0.006514 -1.654461 1.778708 96 97 92
-0.005227 -1.654030 1.877743 98 99 94
-0.004061 -1.654932 1.985696 101 102 97
-0.002559 -1.654178 2.097799 99 101 96
-0.001401 -1.653826 2.187388 98 100 95
-0.000109 -1.652957 2.280701 99 101 96
-0.012487 -1.652271 2.385901 98 100 95
-0.011510 -1.651835 2.490992 98 100 95
-0.010192 -1.649527 2.597962 93 92 88
-0.075885 -1.608847 2.696332 88 69 54
-0.001649 -1.607416 2.741038 87 62 46
-0.004344 -1.605348 2.807218 43 21 8
-0.016555 -1.560199 -3.102751 6 5 3
-0.011791 -1.501586 -3.065892 2 1 1
-0.051939 -1.501562 -2.966278 79 78 76
-0.061572 -1.502322 -2.877313 46 44 95
-0.093631 -1.509451 -2.798496 16 41 99
-0.080563 -1.513114 1.692495 167 198 203
-0.039377 -1.500484 1.794649 169 200 205
-0.095650 -1.502487 1.891959 129 150 155
-0.059853 -1.504495 1.984335 114 135 138
-0.009412 -1.521501 2.099471 117 135 139
-0.009392 -1.508260 2.100217 118 136 140
-0.007425 -1.513938 2.231168 135 160 165
-0.092612 -1.509176 2.468845 112 131 135
-0.098863 -1.508325 2.594569 161 158 151
-0.071242 -1.505928 2.657982 174 163 148
-0.030520 -1.517163 2.797005 190 177 168
-0.013666 -1.506515 2.807377 187 177 165
-0.025635 -1.403219 -3.054743 43 42 38
-0.008179 -1.402101 -2.993512 38 38 36
-0.099921 -1.434825 -2.895333 77 75 78
-0.099215 -1.438744 -2.794891 15 11 126
-0.086513 -1.410112 1.695448 171 200 206
-0.045838 -1.409739 1.798788 172 203 208
-0.099564 -1.408173 1.885775 120 139 143
-0.061469 -1.406453 1.980712 123 142 146
-0.020102 -1.403282 2.080335 123 142 146
-0.009074 -1.401422 2.104195 123 142 148
-0.009178 -1.414577 2.222056 140 163 169
-0.090209 -1.403424 2.473876 121 138 145
-0.093404 -1.405092 2.585586 173 170 161
-0.066921 -1.404505 2.658151 201 193 180
-0.012290 -1.414637 2.797432 195 188 172
-0.001446 -1.437255 2.806071 193 186 170
-0.000456 -1.339052 -3.000425 46 45 41
-0.000068 -1.303828 -2.993992 38 37 35
-0.002872 -1.384784 -2.893908 118 119 118
-0.063093 -1.305510 1.694837 116 135 139
-0.015846 -1.301147 1.799098 121 140 144
-0.099907 -1.312715 1.895267 125 144 150
-0.061008 -1.304124 1.983404 129 148 154
-0.019457 -1.308928 2.079517 132 151 155
-0.008536 -1.306694 2.104425 133 152 156
-0.011227 -1.301986 2.212718 153 177 181
-0.088815 -1.301017 2.486995 134 152 156
-0.089927 -1.311530 2.596775 198 194 182
-0.052348 -1.321240 2.698825 205 197 184
-0.007851 -1.307779 2.785806 196 188 175
-0.004708 -1.301525 2.804679 149 145 133
-0.022982 -1.200174 -3.020295 39 36 31
-0.008456 -1.200978 -2.991875 39 38 36
-0.063813 -1.212634 1.699641 125 144 148
-0.098676 -1.200844 1.791566 120 139 143
-0.098786 -1.211906 1.892726 134 155 160
-0.060238 -1.200815 1.983076 143 162 166
-0.018793 -1.201909 2.079414 144 165 170
-0.007918 -1.211908 2.103635 144 165 170
-0.000792 -1.202082 2.232443 160 184 188
-0.087187 -1.211806 2.494773 138 157 163
-0.096671 -1.207585 2.576949 188 189 183
-0.048136 -1.222174 2.696794 207 199 186
-0.003986 -1.206029 2.781592 198 190 177
-0.005731 -1.213759 2.803915 152 148 136
-0.007779 -1.184249 -3.006703 34 33 31
-0.020657 -1.125573 -2.933891 39 33 29
-0.052809 -1.109620 -2.896697 43 35 30
-0.070090 -1.109233 1.684227 133 152 156
-0.099307 -1.104762 1.790147 130 149 153
-0.097910 -1.112465 1.892165 145 166 171
-0.059487 -1.110512 1.982015 149 170 175
-0.018319 -1.109082 2.080556 151 172 177
-0.007441 -1.105064 2.105570 152 173 178
-0.002674 -1.109639 2.225508 163 188 192
-0.096843 -1.114028 2.478965 143 162 168
-0.090728 -1.103952 2.591601 197 202 195
-0.054315 -1.107289 2.692316 210 202 189
-0.013011 -1.100727 2.762206 198 191 175
-0.000155 -1.106026 2.801049 151 147 135
-0.012172 -1.001768 -4.204601 133 124 125
-0.046849 -1.002323 -4.185979 133 124 125
-0.014865 -1.097813 -2.938629 46 35 29
-0.033083 -1.071114 -2.854085 45 39 35
-0.018265 -1.001785 -2.765253 76 58 45
-0.066182 -1.002165 1.683967 145 164 168
-0.099359 -1.007007 1.783446 140 159 165
-0.097016 -1.001389 1.892259 150 174 178
-0.058718 -1.008076 1.981637 152 176 180
-0.017825 -1.003496 2.082417 154 178 182
-0.007144 -1.012299 2.108755 154 178 182
-0.004849 -1.004463 2.218199 168 192 196
-0.094960 -1.010801 2.487965 145 166 171
-0.097386 -1.006677 2.573453 187 196 193
-0.062885 -1.010067 2.684458 211 203 190
-0.009457 -1.005355 2.762345 197 190 174
-0.003278 -1.010142 2.800700 173 170 155
-0.010775 -0.926141 -4.200463 133 124 125
-0.018955 -0.902959 -4.101157 166 160 170
-0.042129 -0.901698 -4.089249 167 161 171
-0.066146 -0.903400 -3.972761 209 203 204
-0.067909 -0.910392 -3.880725 146 146 148
-0.013927 -0.902152 -3.100523 7 8 12
-0.096755 -0.902285 -3.039579 13 15 14
-0.095811 -0.926043 -2.995902 4 5 7
-0.098327 -0.943178 -2.891943 14 18 21
-0.099400 -0.946985 -2.793698 17 21 24
-0.062691 -0.907061 1.683501 150 169 175
-0.099637 -0.910539 1.778846 144 165 170
-0.096629 -0.904091 1.895688 154 178 182
-0.058156 -0.906678 1.983252 157 181 185
-0.017436 -0.911498 2.084534 160 184 188
-0.006828 -0.906521 2.112673 159 183 187
-0.007082 -0.902370 2.213146 170 195 200
-0.093602 -0.922857 2.497730 146 167 170
-0.095048 -0.923207 2.594784 202 202 194
-0.057111 -0.906967 2.697761 211 203 190
-0.006209 -0.912771 2.766093 195 188 172
-0.001625 -0.975383 2.800802 172 169 154
-0.003840 -0.862084 -4.200806 162 158 157
-0.008536 -0.876854 -4.101178 168 163 170
-0.091713 -0.800557 -4.066727 174 169 178
-0.017406 -0.800572 -3.973777 154 148 158
-0.078467 -0.887178 -3.816537 168 167 172
-0.029475 -0.861897 -3.760526 136 134 135
-0.097664 -0.840071 -3.685979 173 172 170
-0.003331 -0.807274 -3.102226 9 13 14
-0.042640 -0.800403 -3.077520 11 12 14
-0.059197 -0.801479 1.687414 154 175 180
-0.091216 -0.809501 1.795839 150 171 176
-0.096241 -0.806944 1.899108 159 182 188
-0.057388 -0.805068 1.982828 160 185 189
-0.016605 -0.805470 2.082330 164 189 194
-0.006052 -0.812547 2.109794 163 188 193
-0.009278 -0.802638 2.208437 174 199 204
-0.091582 -0.802096 2.474260 149 174 178
-0.096027 -0.863740 2.591343 187 195 193
-0.063422 -0.802113 2.699455 211 203 190
-0.000452 -0.807700 2.773194 193 185 172
-0.010744 -0.816119 2.805702 152 150 137
-0.002449 -0.769507 -4.200558 165 161 160
-0.002340 -0.700452 -4.113094 165 165 165
-0.095214 -0.700786 -4.060633 176 171 178
-0.021101 -0.702095 -3.971480 161 156 163
-0.097994 -0.793557 -3.836858 229 220 221
-0.006606 -0.799864 -3.714582 224 217 225
-0.000700 -0.774955 -3.611077 222 217 211
-0.084746 -0.759378 -3.531484 234 228 228
-0.094883 -0.733403 -3.478949 209 203 200
-0.063613 -0.700896 -3.308463 190 184 184
-0.096439 -0.707730 -3.259334 169 168 166
-0.009475 -0.702041 -3.102598 11 14 19
-0.096501 -0.704073 -3.055149 73 72 71
-0.014390 -0.700211 -2.993796 31 33 32
-0.056108 -0.707541 1.691127 158 181 187
-0.092203 -0.702561 1.796746 154 178 182
-0.095367 -0.709033 1.898460 161 186 191
-0.056621 -0.703910 1.982379 165 190 195
-0.016113 -0.700880 2.084134 168 193 198
-0.005258 -0.706031 2.107622 167 192 197
-0.011383 -0.704982 2.203095 176 201 206
-0.099501 -0.708766 2.480475 151 175 179
-0.025560 -0.703438 2.592109 172 169 160
-0.096182 -0.709275 2.684939 205 201 189
-0.007401 -0.702116 2.770767 192 185 169
-0.011764 -0.712750 2.802221 152 150 137
-0.037940 -0.608352 -4.101440 167 167 167
-0.098668 -0.602350 -4.055468 179 174 178
-0.033608 -0.603337 -3.968413 163 158 162
-0.086184 -0.681261 -3.417062 191 187 188
-0.071540 -0.699212 -3.327197 229 223 223
-0.097189 -0.675678 -3.274474 240 235 232
-0.097921 -0.658809 -3.173178 202 197 193
-0.055068 -0.644342 -3.099025 74 72 73
-0.011354 -0.642330 -2.999473 30 32 31
-0.098374 -0.600845 1.599004 160 184 188
-0.052798 -0.602048 1.697137 161 184 190
-0.093047 -0.631697 1.799112 156 180 184
-0.094616 -0.611765 1.898804 165 190 195
-0.056267 -0.603926 1.985964 168 193 198
-0.015303 -0.608816 2.081143 171 196 200
-0.004465 -0.600115 2.105416 171 196 200
-0.001716 -0.612852 2.224843 176 201 206
-0.098110 -0.605138 2.397617 158 179 184
-0.096855 -0.605668 2.483168 153 177 181
-0.022974 -0.610998 2.590775 178 178 170
-0.094461 -0.697123 2.696774 208 204 193
-0.001444 -0.600895 2.772488 193 186 170
-0.006891 -0.672027 2.800086 152 150 135
-0.036166 -0.508496 -4.101336 167 168 163
-0.090792 -0.505643 -4.058171 180 176 177
-0.019142 -0.500318 -3.973667 162 158 159
-0.083844 -0.597347 -3.104522 203 197 197
-0.094979 -0.509804 1.598458 69 73 72
-0.059199 -0.503941 1.682646 96 107 109
-0.099616 -0.530523 1.795811 122 146 148
-0.093725 -0.502731 1.898783 168 193 197
-0.055604 -0.503662 1.986490 171 196 200
-0.014812 -0.504958 2.082906 175 200 204
-0.004010 -0.508349 2.106501 175 200 205
-0.004491 -0.505946 2.224481 180 205 209
-0.098144 -0.500197 2.360174 161 185 189
-0.094606 -0.503375 2.488939 157 181 185
-0.020020 -0.503857 2.589678 181 181 171
-0.081114 -0.515164 2.677676 203 198 182
-0.008795 -0.501677 2.779195 193 186 168
-0.014183 -0.508827 2.801032 159 156 141
-0.034394 -0.409650 -4.103153 171 172 167
-0.094187 -0.409842 -4.058040 183 179 176
-0.022882 -0.405279 -3.974484 164 159 156
-0.091194 -0.407596 1.598104 71 75 76
-0.056127 -0.410220 1.686357 99 110 114
-0.017815 -0.400866 1.782369 160 185 189
-0.092853 -0.406163 1.898060 172 196 200
-0.054839 -0.403668 1.985975 174 199 204
-0.014153 -0.401199 2.082619 177 202 206
-0.003457 -0.403752 2.107287 178 203 207
-0.006950 -0.400928 2.219281 180 205 209
-0.087800 -0.404439 2.388280 164 185 190
-0.092231 -0.401174 2.493652 158 182 186
-0.017759 -0.412813 2.591354 185 183 171
-0.076649 -0.405559 2.693529 204 201 186
-0.003286 -0.405248 2.786047 194 185 170
-0.015519 -0.407833 2.802361 160 158 143
-0.007989 -0.300295 -4.113250 173 174 168
-0.097995 -0.302691 -4.055839 184 180 177
-0.017203 -0.301389 -3.975559 164 160 157
-0.087416 -0.305558 1.597746 65 71 71
-0.052247 -0.304214 1.686076 101 114 120
-0.095777 -0.305603 1.776769 128 149 152
-0.092225 -0.310193 1.899358 172 196 200
-0.054280 -0.304261 1.987477 175 200 205
-0.013682 -0.310865 2.083620 179 204 208
-0.003004 -0.312563 2.108339 180 205 209
-0.009048 -0.311136 2.214757 183 207 211
-0.088672 -0.304673 2.369804 167 188 193
-0.090126 -0.313739 2.497079 160 183 189
-0.015231 -0.307091 2.594309 188 186 173
-0.085717 -0.309857 2.681216 206 203 188
-0.010512 -0.310231 2.793166 195 186 169
-0.000027 -0.306837 2.802306 161 159 144
-0.030694 -0.201387 -4.102791 174 175 167
-0.090221 -0.208314 -4.058251 185 182 175
-0.012232 -0.208644 -3.980443 165 162 157
-0.083643 -0.203689 1.597386 67 71 70
-0.049364 -0.210441 1.691890 106 121 124
-0.097719 -0.206263 1.746841 123 142 146
-0.091093 -0.202478 1.897208 173 197 201
-0.053516 -0.205093 1.986915 176 201 205
-0.013024 -0.207903 2.083288 181 206 210
-0.002372 -0.208625 2.108065 182 206 210
-0.000454 -0.210358 2.243481 182 206 210
-0.090783 -0.207899 2.384645 168 189 192
-0.087503 -0.211957 2.499657 160 184 188
-0.012307 -0.201609 2.593068 192 186 172
-0.080896 -0.201482 2.692644 209 203 187
-0.002180 -0.204304 2.794780 192 186 170
-0.027465 -0.203965 2.801394 191 185 169
-0.028976 -0.104535 -4.102386 174 175 167
-0.094017 -0.103044 -4.055846 186 182 173
-0.006601 -0.105662 -3.981448 166 163 156
-0.089323 -0.101508 1.585912 69 74 70
-0.054727 -0.103904 1.671198 95 108 109
-0.099906 -0.145867 1.740792 117 135 137
-0.099611 -0.107487 1.878480 173 197 201
-0.053369 -0.106337 1.992482 178 203 207
-0.012787 -0.105359 2.088045 182 207 211
-0.002059 -0.105111 2.111856 184 208 212
-0.014454 -0.100681 2.213006 185 209 213
-0.092182 -0.152537 2.398083 169 190 193
-0.096462 -0.110347 2.484058 161 185 189
-0.009968 -0.111734 2.593597 194 188 174
-0.076091 -0.108946 2.694882 211 205 189
-0.001922 -0.139326 2.799201 193 186 170
-0.006716 -0.100747 2.802203 193 186 170
-0.027254 -0.008383 -4.103933 178 180 169
-0.097346 -0.010283 -4.055402 188 184 175
-0.001087 -0.003205 -3.985920 169 166 157
-0.086624 -0.000246 1.595043 75 77 74
-0.052469 -0.010406 1.683321 103 116 118
-0.015771 -0.009005 1.787739 175 197 200
-0.098949 -0.001609 1.880334 175 199 203
-0.090064 -0.000415 1.902431 175 199 203
-0.012467 -0.002935 2.091773 183 208 212
-0.001906 -0.001659 2.117687 183 208 212
-0.006052 -0.002156 2.241088 183 207 209
-0.094629 -0.009875 2.492818 164 188 190
-0.020263 -0.007718 2.580532 198 192 178
-0.083959 -0.002340 2.680297 211 206 187
-0.030140 -0.037567 2.797359 194 185 168
-0.003985 -0.024616 2.808206 194 185 168
-0.025349 0.098939 -4.103566 179 179 169
-0.090101 0.093168 -4.056515 185 182 173
-0.000487 0.006996 -3.984375 169 166 157
-0.093364 0.089549 1.589674 77 76 72
-0.050165 0.095865 1.699870 110 126 127
-0.032110 0.098904 1.752208 148 168 169
-0.098557 0.092355 1.883574 176 202 203
-0.071844 0.098964 1.955081 178 203 207
-0.012314 0.099503 2.097548 182 207 211
-0.001771 0.088862 2.122790 183 208 212
-0.008672 0.092749 2.241341 183 204 209
-0.092402 0.090432 2.498413 166 190 192
-0.018164 0.095923 2.587479 196 190 176
-0.079763 0.088309 2.688477 211 206 187
-0.011895 0.093409 2.787131 179 173 157
-0.004920 0.091034 2.800091 163 160 145
-0.023652 0.193743 -4.104977 178 178 168
-0.093851 0.195589 -4.053812 184 181 172
-0.099576 0.190918 -3.973356 187 180 174
-0.090799 0.191398 1.599880 89 84 80
-0.055521 0.199466 1.679102 104 114 115
-0.099624 0.196361 1.796309 151 170 174
-0.098148 0.197916 1.887467 176 200 202
-0.061834 0.198359 1.979545 176 201 205
-0.022386 0.198520 2.076229 178 204 205
-0.001617 0.192314 2.128621 179 205 206
-0.000110 0.178864 2.270970 180 201 204
-0.092141 0.104771 2.499664 166 190 192
-0.016272 0.199609 2.596519 197 191 177
-0.088217 0.192095 2.681718 210 205 186
-0.036042 0.199873 2.773271 179 174 155
-0.013395 0.192048 2.814762 160 174 174
-0.021790 0.299244 -4.103417 174 174 164
-0.097546 0.297296 -4.053170 184 180 171
-0.094609 0.289672 -3.973927 185 178 172
-0.096765 0.291187 1.591497 99 91 88
-0.070339 0.299075 1.645056 82 81 79
-0.099634 0.219690 1.794616 151 170 174
-0.097505 0.291238 1.888614 173 197 199
-0.079704 0.299193 1.934128 172 196 198
-0.051738 0.299420 2.005101 173 197 199
-0.001305 0.295462 2.132391 173 197 199
-0.099895 0.288537 2.495382 162 186 190
-0.039640 0.299096 2.574393 188 186 173
-0.097330 0.295068 2.683179 207 201 185
-0.084891 0.297909 2.707374 207 201 185
-0.006659 0.290529 2.801164 160 157 140
-0.020166 0.391931 -4.100572 169 166 157
-0.090416 0.397609 -4.052837 176 172 163
-0.090241 0.398630 -3.973708 176 171 165
-0.095151 0.359471 1.599019 168 189 192
-0.085947 0.397714 1.623510 166 187 190
-0.099923 0.359205 1.786570 161 185 187
-0.097096 0.396387 1.892484 166 190 192
-0.070052 0.399147 1.959683 165 189 191
-0.051181 0.397004 2.006501 162 188 189
-0.000993 0.398459 2.136153 162 186 188
-0.099375 0.317009 2.497864 159 183 185
-0.049878 0.398577 2.565000 159 160 165
-0.095621 0.355458 2.699480 205 199 183
-0.027712 0.399404 2.799288 166 160 144
-0.013456 0.385024 2.802357 167 162 146
-0.018302 0.496143 -4.101915 157 157 147
-0.094093 0.497505 -4.052002 166 162 153
-0.091036 0.416294 -3.999882 184 181 172
-0.094730 0.449205 1.599083 151 175 179
-0.092244 0.497771 1.617268 151 175 177
-0.096484 0.495348 1.791148 149 175 176
-0.096705 0.489656 1.895684 153 177 179
-0.078238 0.499886 1.935169 153 177 179
-0.040612 0.499572 2.029044 155 176 179
-0.010886 0.494177 2.109568 153 177 177
-0.093495 0.429630 2.498815 156 180 182
-0.047444 0.499528 2.568564 158 161 154
-0.095619 0.448185 2.698421 186 183 166
-0.079647 0.497196 2.765883 189 183 167
-0.008352 0.490766 2.807044 160 154 138
-0.016466 0.599330 -4.102145 149 149 139
-0.097741 0.596559 -4.051083 157 154 145
-0.091809 0.583647 -3.999754 170 167 158
-0.098357 0.596698 1.609925 136 155 159
-0.099502 0.556252 1.795191 143 167 169
-0.096297 0.594476 1.899536 143 164 165
-0.077864 0.594545 1.938450 142 165 169
-0.040269 0.597931 2.032540 137 162 167
-0.010567 0.595709 2.113245 104 125 128
-0.090986 0.596949 2.450577 138 158 159
-0.058228 0.598192 2.565348 120 121 113
-0.044027 0.596799 2.695394 137 130 122
-0.077420 0.590498 2.795553 172 169 154
-0.004026 0.597648 2.822405 149 145 131
-0.026528 0.689474 -4.100424 141 141 131
-0.090697 0.694158 -4.051483 149 146 137
-0.092269 0.683383 -3.999636 161 157 148
-0.091943 0.690156 1.586107 43 90 110
-0.083427 0.696282 1.604804 42 89 109
-0.092626 0.689243 1.796109 41 88 108
-0.083961 0.696851 1.819823 40 87 107
-0.096141 0.699787 1.905472 44 96 117
-0.040122 0.696762 2.038111 42 94 115
-0.009745 0.695277 2.110677 39 91 112
-0.098006 0.698990 2.291701 40 85 107
-0.088420 0.696089 2.334670 59 83 93
-0.096003 0.696302 2.455881 64 93 90
-0.076052 0.696754 2.509268 73 91 96
-0.052282 0.689382 2.694975 123 119 110
-0.087621 0.678039 2.797377 167 161 147
-0.059313 0.699633 2.825474 148 144 132
-0.013057 0.791555 -4.101187 127 127 117
-0.093172 0.757618 -4.045975 139 136 127
-0.092422 0.716516 -3.999589 156 153 146
-0.092610 0.716412 1.599270 42 89 109
-0.093252 0.792565 1.627061 40 85 104
-0.092747 0.700989 1.796326 39 87 109
-0.096663 0.792253 1.826632 34 82 102
-0.095750 0.792662 1.908650 38 86 106
-0.049556 0.798666 2.018889 38 87 105
-0.009427 0.796283 2.114325 36 85 102
-0.066086 0.798967 2.263585 32 79 95
-0.042108 0.797193 2.304732 43 85 99
-0.089488 0.797561 2.429990 35 78 94
-0.064245 0.790192 2.546110 59 80 88
-0.017619 0.799257 2.644397 93 94 88
-0.012539 0.798967 2.785480 113 111 99
-0.013402 0.733330 2.838363 140 136 124
-0.014559 0.825989 -4.103024 123 123 113
-0.082531 0.870339 -4.003373 122 119 112
-0.093133 0.870519 -3.999686 122 119 112
-0.083518 0.898209 1.667533 26 77 94
-0.057066 0.898662 1.726038 29 78 95
-0.090719 0.891356 1.871061 25 72 90
-0.095664 0.851121 1.911945 32 80 100
-0.028685 0.899147 2.060115 26 75 92
-0.085801 0.871587 2.198610 36 79 95
-0.062334 0.883419 2.235936 28 74 89
-0.041167 0.892655 2.307153 52 77 95
-0.096527 0.896694 2.407640 29 76 92
-0.060547 0.853041 2.576610 76 78 75
-0.051359 0.872215 2.648694 73 75 72
-0.014595 0.893917 2.791562 105 103 91
-0.004352 0.895173 2.822877 107 107 95
-0.019197 0.993153 -4.101643 112 109 100
-0.081854 0.999617 -4.003856 118 115 106
-0.093858 0.998641 -3.999756 118 115 106
-0.000345 0.995451 0.752044 125 121 118
-0.076168 0.996623 0.802205 126 123 118
-0.035767 0.999382 0.900991 125 122 117
-0.003008 0.992943 1.663182 74 84 86
-0.011034 0.991822 1.714023 73 83 84
-0.095691 0.994415 1.894495 24 58 70
-0.088472 0.999556 1.957179 12 64 85
-0.018047 0.906577 2.078278 23 72 89
-0.020308 0.971246 2.100707 16 69 87
-0.098645 0.951142 2.341189 183 203 198
-0.077262 0.974079 2.477367 24 67 83
-0.071889 0.997490 2.545991 56 82 88
-0.066800 0.992921 2.615203 90 98 90
-0.099586 0.962072 2.798820 116 114 101
-0.006914 0.990147 2.830549 104 102 89
-0.006164 1.053786 -4.103055 97 97 87
-0.082128 1.010948 -4.002268 117 114 105
-0.094122 1.009963 -3.998169 117 114 105
-0.020902 1.024817 -3.800793 112 111 107
-0.034137 1.019382 -3.700781 118 117 113
-0.008575 1.016127 -3.601732 122 121 117
-0.021433 1.014816 -3.500886 122 121 117
-0.007450 1.015481 -3.400925 121 120 116
-0.011333 1.016360 -3.304036 118 117 115
-0.000124 1.015056 -3.200214 117 116 114
-0.034810 1.012351 -3.102422 115 114 112
-0.031078 1.012179 -3.002082 114 113 111
-0.021636 1.011165 -2.900809 110 109 105
-0.095757 1.010906 -2.813853 104 103 101
-0.094894 1.002704 -2.749356 105 104 102
-0.079199 1.000025 0.867305 124 121 116
-0.084704 1.000968 0.901294 124 121 117
-0.066637 1.003667 1.000453 124 121 116
-0.072173 1.007212 1.100097 119 118 114
-0.067356 1.008125 1.201171 121 117 114
-0.020819 1.009240 1.301047 116 115 113
-0.021330 1.011757 1.403972 113 115 112
-0.085176 1.011698 1.501464 100 107 105
-0.007477 1.015864 1.601815 104 110 108
-0.016177 1.017237 1.700374 97 106 105
-0.025050 1.017108 1.802302 83 93 95
-0.008556 1.017067 1.904275 78 89 91
-0.041545 1.006674 2.001322 42 72 82
-0.009377 1.022928 2.102351 14 63 80
-0.064596 1.001840 2.599191 89 97 89
-0.059433 1.044664 2.683955 79 81 78
-0.000001 1.087620 2.770414 98 99 94
-0.008193 1.037550 2.834375 98 96 84
-0.004848 1.116250 2.505296 99 104 100
-0.007151 1.113493 2.620237 96 101 97
-0.038686 1.100127 2.705427 93 95 90
0.083489 -1.701205 -3.098118 69 71 66
0.007972 -1.705971 -0.300927 86 83 78
0.011430 -1.704709 -0.202384 93 90 85
0.012095 -1.707116 -0.103280 104 101 96
0.000935 -1.708451 -0.003600 104 101 96
0.012185 -1.707888 0.099037 105 102 97
0.005216 -1.707081 0.197192 108 104 101
0.007072 -1.706953 0.298427 107 106 102
0.011809 -1.705873 0.395867 106 105 101
0.016831 -1.704148 0.499349 103 102 98
0.000346 -1.702397 0.596002 102 103 97
0.000921 -1.700732 0.696593 97 96 92
0.012534 -1.700039 0.796230 98 97 93
0.000993 -1.700002 0.887168 91 92 87
0.005317 -1.702732 0.998361 87 88 83
0.005013 -1.706803 1.096530 88 89 84
0.025758 -1.712914 1.197106 84 86 81
0.038702 -1.719399 1.297365 82 83 78
0.006435 -1.724592 1.370528 82 84 79
0.090427 -1.715389 1.494843 86 91 87
0.096711 -1.715050 1.597726 89 92 87
0.037325 -1.716680 1.698420 88 93 89
0.002220 -1.709895 1.793598 86 91 87
0.050141 -1.711061 1.895179 92 97 94
0.072235 -1.708039 1.987739 96 107 107
0.037715 -1.701010 2.097746 40 42 39
0.092641 -1.701062 2.161684 40 42 39
0.025778 -1.704200 2.399047 44 46 43
0.078357 -1.700079 2.472867 43 45 42
0.070969 -1.601138 -3.133272 36 32 29
0.052128 -1.601916 -3.089141 74 67 61
0.001968 -1.688715 -2.996285 65 67 64
0.007107 -1.686172 -2.896214 70 72 69
0.003800 -1.694847 -2.790667 79 84 80
0.003535 -1.694655 -2.692983 95 97 94
0.003300 -1.694677 -2.595150 112 113 108
0.006753 -1.696223 -2.499113 132 135 128
0.003958 -1.691961 -2.393601 127 130 123
0.082387 -1.691079 -2.299867 136 137 130
0.069390 -1.699839 0.695358 97 96 92
0.041598 -1.688503 0.798482 67 64 59
0.093393 -1.652241 0.890501 94 91 84
0.099895 -1.652451 0.997588 89 88 83
0.096019 -1.652717 1.089126 89 88 83
0.091836 -1.653117 1.187839 90 89 84
0.097238 -1.653280 1.289517 91 90 85
0.091901 -1.652781 1.384415 95 94 90
0.096743 -1.652676 1.481728 99 98 94
0.090872 -1.653557 1.592805 97 98 93
0.095035 -1.652847 1.681225 99 98 94
0.099300 -1.653960 1.778244 98 99 94
0.091868 -1.654198 1.885569 100 101 96
0.096337 -1.655153 1.995586 99 100 95
0.099999 -1.654595 2.080609 101 102 97
0.090791 -1.653498 2.175123 100 101 96
0.094614 -1.651512 2.266638 100 101 96
0.098487 -1.651261 2.366813 98 100 95
0.088511 -1.649546 2.476148 97 98 93
0.092505 -1.648341 2.586169 92 93 88
0.099863 -1.626528 2.695737 86 79 73
0.089581 -1.603658 2.731934 98 71 54
0.012000 -1.602619 2.805293 45 23 10
0.081777 -1.504043 -3.117619 50 43 37
0.034285 -1.502320 -3.090897 11 10 8
0.045513 -1.500975 -2.984463 152 124 84
0.009381 -1.555590 1.899694 167 200 205
0.040045 -1.504328 1.984984 172 203 208
0.076721 -1.508403 2.073174 174 203 209
0.024124 -1.511203 2.186423 117 136 140
0.072873 -1.509783 2.298072 114 133 137
0.098790 -1.508537 2.356242 115 133 137
0.070030 -1.503774 2.475239 131 155 159
0.098320 -1.517878 2.594263 126 147 150
0.092948 -1.501700 2.790757 187 179 166
0.059906 -1.518240 2.802638 184 176 163
0.082735 -1.402063 -3.104159 48 47 43
0.088369 -1.401279 -3.033640 41 41 39
0.000037 -1.427517 -2.990299 10 10 10
0.014211 -1.400733 -2.891317 39 24 9
0.038276 -1.402456 1.895796 116 135 139
0.072032 -1.400367 1.988538 118 136 140
0.009367 -1.402849 2.086533 113 134 139
0.078604 -1.408462 2.191357 110 128 132
0.098262 -1.406418 2.234290 110 125 130
0.099246 -1.403713 2.354021 130 148 152
0.067709 -1.413414 2.461418 144 163 167
0.094960 -1.407501 2.580250 127 145 147
0.092613 -1.413141 2.791904 192 186 174
0.048309 -1.409039 2.801539 193 185 172
0.094248 -1.300340 -3.111685 47 46 42
0.095383 -1.301041 -3.034898 42 42 40
0.008014 -1.308007 -2.997598 41 41 39
0.003524 -1.387374 -2.893508 99 99 99
0.028181 -1.307249 1.884109 123 142 146
0.075129 -1.308341 1.994257 124 143 147
0.053589 -1.361322 2.098922 114 132 136
0.081192 -1.307944 2.191458 124 142 146
0.099953 -1.321203 2.245205 124 140 140
0.099625 -1.300180 2.353759 139 157 161
0.065029 -1.307226 2.443934 153 175 180
0.092394 -1.314153 2.558915 142 166 170
0.095478 -1.306275 2.783345 194 188 176
0.010879 -1.367363 2.800271 195 188 172
0.093001 -1.229825 -3.108252 20 16 13
0.051104 -1.201312 -3.034563 39 38 36
0.008211 -1.214851 -2.999551 37 36 34
0.031525 -1.206038 1.890002 133 152 156
0.078864 -1.201042 1.996100 139 158 162
0.031393 -1.211578 2.091604 133 151 155
0.073542 -1.203574 2.185785 132 150 154
0.091904 -1.204676 2.247208 133 151 155
0.099907 -1.212157 2.354656 143 164 167
0.075663 -1.205203 2.481151 149 173 177
0.089358 -1.206297 2.536707 145 169 173
0.098165 -1.203121 2.777920 196 190 178
0.028558 -1.211473 2.801401 151 147 135
0.091800 -1.195694 -3.101133 72 69 64
0.094787 -1.143950 -3.006040 42 34 28
0.072283 -1.109239 -2.953055 61 48 37
0.035227 -1.102276 1.889707 146 165 169
0.082210 -1.106433 1.995656 147 166 170
0.030629 -1.102382 2.087329 141 160 164
0.065909 -1.100635 2.181146 139 158 164
0.093493 -1.108713 2.265562 137 155 159
0.087162 -1.100723 2.329353 149 170 175
0.073066 -1.101091 2.456700 147 168 173
0.086424 -1.101531 2.514617 148 169 174
0.086541 -1.101498 2.775772 196 189 179
0.021057 -1.109480 2.800175 153 151 138
0.096831 -1.000361 -4.264006 128 123 120
0.029605 -1.005874 -4.106540 124 114 112
0.073579 -1.004108 -4.086868 108 100 97
0.067693 -1.085067 -3.002207 82 77 67
0.088746 -1.088691 -2.963288 71 64 58
0.096905 -1.004840 -2.822137 87 70 48
0.031903 -1.005524 -2.796217 87 65 48
0.038475 -1.011521 1.889189 152 173 178
0.085551 -1.011956 1.995210 152 173 176
0.030234 -1.005607 2.078636 146 165 169
0.056853 -1.005151 2.198182 144 163 169
0.095089 -1.000821 2.290246 140 159 163
0.087396 -1.000323 2.332979 151 175 179
0.070254 -1.003519 2.445111 156 180 184
0.097789 -1.013460 2.547551 155 170 173
0.089195 -1.003939 2.772565 193 189 178
0.018976 -1.003674 2.800096 153 151 138
0.097243 -0.905575 -4.269671 188 179 184
0.003998 -0.902270 -4.106841 167 162 169
0.005193 -0.947182 -4.091683 166 161 167
0.025636 -0.927578 -3.950881 82 84 83
0.072372 -0.906880 -3.889232 70 70 70
0.095794 -0.903846 -3.242611 63 29 27
0.098210 -0.900108 -3.117141 14 12 13
0.011515 -0.900255 -3.087932 3 3 3
0.050507 -0.901522 -2.998132 82 78 51
0.099570 -0.900173 -2.822280 5 5 3
0.098909 -0.912877 -2.796807 33 33 31
0.098934 -0.929055 -2.699805 182 129 77
0.041945 -0.909268 1.893023 157 178 183
0.076937 -0.909523 1.971073 156 177 182
0.029617 -0.910704 2.074098 151 172 177
0.047776 -0.953699 2.196874 146 165 171
0.086523 -0.909091 2.288800 144 163 167
0.096603 -0.903388 2.310976 145 162 169
0.080536 -0.904411 2.485736 149 173 177
0.094624 -0.914932 2.534192 152 170 172
0.091824 -0.908417 2.768448 194 188 176
0.034275 -0.915700 2.800488 153 151 138
0.098754 -0.802207 -4.241633 140 135 132
0.011317 -0.800958 -4.103499 174 169 173
0.000291 -0.812989 -4.098460 173 168 174
0.066478 -0.801385 -3.999062 154 149 155
0.059258 -0.866091 -3.860005 172 167 171
0.030682 -0.862188 -3.762641 77 79 78
0.045057 -0.840972 -3.665394 68 69 71
0.048052 -0.800219 -3.545065 62 63 65
0.095434 -0.805822 -3.205679 62 61 59
0.015386 -0.802128 -3.101113 9 10 14
0.000778 -0.801241 -3.094170 9 10 14
0.080193 -0.895407 -2.997266 53 111 43
0.099348 -0.883177 -2.841857 9 8 6
0.045312 -0.807400 1.898928 159 183 187
0.080390 -0.804976 1.979082 159 183 187
0.040222 -0.810213 2.095686 154 175 180
0.027333 -0.806504 2.192482 162 187 191
0.077975 -0.806710 2.293602 146 167 172
0.098082 -0.805156 2.332898 143 164 169
0.077671 -0.809861 2.473253 145 169 173
0.091002 -0.803342 2.520584 141 153 151
0.094428 -0.814933 2.763421 193 187 175
0.005831 -0.820132 2.800003 171 168 153
0.051718 -0.701923 -4.211888 146 138 136
0.018699 -0.701593 -4.103146 177 172 176
0.007311 -0.701613 -4.099310 177 172 176
0.024523 -0.702454 -3.986089 160 155 161
0.001696 -0.796162 -3.708484 207 203 200
0.010701 -0.795896 -3.622615 98 96 99
0.033895 -0.796445 -3.573641 71 73 72
0.071113 -0.759443 -3.475846 102 100 101
0.034599 -0.725232 -3.369304 64 66 65
0.056049 -0.704157 -3.261443 75 76 78
0.068836 -0.700241 -3.121856 18 21 26
0.004048 -0.706301 -3.095127 17 20 25
0.002059 -0.706654 -2.998822 7 8 10
0.037118 -0.711899 1.881711 162 186 190
0.083473 -0.712846 1.984806 163 188 192
0.000149 -0.702091 2.093840 151 172 177
0.027869 -0.710713 2.191761 166 191 196
0.059084 -0.702305 2.291450 150 171 176
0.099288 -0.706867 2.360591 145 164 170
0.074292 -0.703335 2.464427 135 156 159
0.087965 -0.710217 2.509813 142 152 151
0.009635 -0.709057 2.697184 173 169 157
0.099613 -0.708914 2.758186 191 187 175
0.007395 -0.786190 2.800997 171 168 153
0.041790 -0.601695 -4.207302 150 143 137
0.014829 -0.603859 -4.102008 178 174 175
0.003389 -0.603453 -4.096078 178 174 175
0.002394 -0.600690 -3.981849 161 156 160
0.073730 -0.699538 -3.409834 79 77 78
0.067180 -0.697423 -3.320497 77 76 74
0.067601 -0.665595 -3.201645 64 65 67
0.005197 -0.654970 -3.149975 45 45 45
0.002658 -0.668271 -3.097791 7 11 14
0.003141 -0.686561 -2.999224 5 7 6
0.040230 -0.611172 1.891759 165 190 195
0.086879 -0.607875 1.994892 166 191 195
0.038263 -0.609236 2.097293 159 183 187
0.028424 -0.601864 2.191776 169 194 199
0.048954 -0.664284 2.296642 153 174 179
0.090200 -0.603552 2.371353 149 170 175
0.084647 -0.603272 2.490546 157 177 178
0.098651 -0.606971 2.524161 159 179 180
0.012776 -0.612444 2.688951 176 172 160
0.091052 -0.605978 2.762376 190 186 174
0.020664 -0.609718 2.801972 154 152 139
0.031932 -0.502389 -4.201556 153 146 140
0.022285 -0.506854 -4.104603 179 175 174
0.010882 -0.506522 -4.098677 179 175 174
0.044463 -0.501124 -3.996543 161 157 158
0.032271 -0.505651 1.879882 168 193 197
0.077962 -0.510960 1.978911 170 195 199
0.037486 -0.501385 2.093000 162 187 191
0.028826 -0.507159 2.193034 174 199 204
0.064077 -0.505367 2.281290 171 196 201
0.091873 -0.501896 2.390001 149 168 174
0.081205 -0.500724 2.482655 157 176 180
0.094989 -0.503336 2.516629 159 178 182
0.015652 -0.501973 2.688173 175 171 159
0.096034 -0.505671 2.760565 190 188 175
0.019316 -0.508227 2.802333 155 156 142
0.093007 -0.400737 -4.227274 156 147 140
0.018313 -0.410340 -4.101173 181 177 174
0.006966 -0.410084 -4.095259 181 177 174
0.022159 -0.401164 -3.989903 163 159 156
0.035241 -0.404865 1.892021 171 196 201
0.081414 -0.405642 1.986939 173 198 202
0.036742 -0.407542 2.090542 164 189 193
0.029360 -0.412514 2.192248 176 201 205
0.064531 -0.407727 2.280684 173 198 202
0.082965 -0.410252 2.390977 151 172 177
0.093629 -0.411730 2.401174 150 169 175
0.091355 -0.402340 2.512528 160 179 183
0.017882 -0.408061 2.690115 176 172 160
0.087714 -0.407638 2.764798 190 187 172
0.017915 -0.407289 2.803651 155 156 140
0.070900 -0.300846 -4.216334 157 150 140
0.025212 -0.303057 -4.103653 182 177 174
0.002722 -0.302903 -4.093974 182 178 175
0.000349 -0.303524 -3.983886 164 160 157
0.027456 -0.300609 1.878015 172 197 201
0.084806 -0.300031 1.997046 175 200 204
0.048049 -0.301694 2.099651 167 191 195
0.029717 -0.305077 2.195244 179 204 208
0.064882 -0.310608 2.282086 176 201 205
0.074965 -0.305689 2.383244 153 174 179
0.095942 -0.307867 2.408367 149 170 173
0.087849 -0.303327 2.505702 162 181 185
0.019581 -0.314915 2.698236 178 172 158
0.092566 -0.312104 2.764436 190 186 174
0.016705 -0.306518 2.801948 161 159 144
0.049148 -0.202743 -4.204065 159 152 142
0.021363 -0.208475 -4.102174 183 178 174
0.010212 -0.208494 -4.098417 183 178 174
0.014859 -0.200139 -3.989155 165 162 155
0.030192 -0.211927 1.885790 173 198 202
0.075926 -0.205479 1.980995 177 201 205
0.003333 -0.200138 2.099534 162 183 186
0.030249 -0.211151 2.194417 182 206 210
0.065284 -0.213722 2.282457 179 203 207
0.077101 -0.202940 2.392714 155 174 180
0.098318 -0.203823 2.414413 150 169 175
0.097992 -0.205781 2.528991 171 181 180
0.011218 -0.204146 2.654683 189 183 171
0.099648 -0.205665 2.768018 192 189 174
0.015383 -0.206405 2.802195 162 159 144
0.050867 -0.107392 -4.202422 159 152 142
0.028121 -0.102934 -4.103353 182 177 173
0.005926 -0.102972 -4.095874 182 177 171
0.002201 -0.105949 -3.983375 166 163 156
0.033386 -0.110082 1.893791 176 200 204
0.078823 -0.113016 1.990885 179 203 207
0.002070 -0.111937 2.097593 164 185 188
0.030670 -0.104270 2.196362 182 206 210
0.065654 -0.103385 2.284603 178 203 207
0.069250 -0.100037 2.383681 154 173 179
0.089675 -0.112757 2.409591 151 170 174
0.094506 -0.110246 2.519012 165 166 160
0.013253 -0.112475 2.658508 188 182 168
0.093958 -0.101563 2.773831 193 187 173
0.014192 -0.106703 2.800404 160 158 143
0.052880 -0.000850 -4.202617 161 155 143
0.024285 -0.009971 -4.101699 183 178 172
0.002179 -0.010008 -4.094251 184 179 173
0.007817 -0.003261 -3.983203 168 165 156
0.036826 -0.007885 1.897630 177 201 205
0.082516 -0.006921 1.992707 180 204 208
0.000938 -0.049022 2.099983 166 185 191
0.008758 -0.000293 2.145614 183 208 212
0.066003 -0.007107 2.285958 178 203 207
0.082417 -0.010245 2.387849 152 171 177
0.092721 -0.009527 2.402863 151 170 176
0.090601 -0.003791 2.509194 173 183 182
0.014117 -0.005440 2.680344 183 177 161
0.095947 -0.025097 2.779131 191 187 175
0.033183 -0.024675 2.801192 193 185 170
0.054573 0.093301 -4.200889 161 153 142
0.020129 0.093861 -4.102197 182 177 171
0.009116 0.093842 -4.098487 182 177 171
0.004492 0.098793 -3.986847 172 169 160
0.029289 0.093345 1.879375 177 201 203
0.074112 0.098394 1.977846 180 204 206
0.013979 0.092639 2.090608 177 202 207
0.019898 0.093424 2.177689 182 207 211
0.042569 0.098071 2.233466 180 205 209
0.095627 0.093106 2.398423 149 168 172
0.095203 0.080382 2.400141 149 168 172
0.087204 0.087335 2.504218 172 182 181
0.005057 0.099367 2.647651 193 187 171
0.097587 0.093007 2.772239 175 173 158
0.011526 0.091199 2.801709 162 159 144
0.056609 0.198725 -4.202052 159 151 140
0.026791 0.196637 -4.103040 177 173 164
0.004873 0.196600 -4.095655 179 175 166
0.009502 0.190050 -3.986938 171 168 159
0.032461 0.195341 1.887385 175 199 201
0.006225 0.190044 1.997602 172 200 203
0.007221 0.197299 2.087185 176 200 204
0.020195 0.198788 2.181587 179 205 206
0.066618 0.198601 2.291444 172 197 198
0.098700 0.194794 2.390465 146 165 169
0.070439 0.185484 2.477076 161 181 182
0.095927 0.197410 2.561035 172 182 181
0.006242 0.190427 2.660805 188 182 166
0.086162 0.185715 2.775253 174 172 157
0.010536 0.173055 2.800449 161 158 143
0.058376 0.291936 -4.202352 153 147 135
0.022594 0.298679 -4.102265 173 169 160
0.000665 0.298347 -4.092723 174 171 162
0.015109 0.290359 -3.983057 170 168 156
0.035882 0.297238 1.891222 170 194 196
0.001549 0.293174 1.994918 169 194 197
0.001097 0.288930 2.089836 171 195 199
0.009354 0.299960 2.160496 173 197 199
0.043233 0.299258 2.238689 170 196 197
0.091464 0.293060 2.368462 143 161 163
0.097111 0.287546 2.413240 160 185 189
0.007055 0.297734 2.682675 182 176 160
0.091013 0.292838 2.777148 171 169 154
0.009254 0.270928 2.800512 159 156 141
0.060391 0.396375 -4.203444 145 139 127
0.018368 0.399690 -4.100307 165 161 152
0.007397 0.399292 -4.094447 166 162 153
0.020629 0.390122 -3.981472 166 164 152
0.028097 0.396332 1.878112 163 187 189
0.000324 0.319092 1.995779 167 192 194
0.000197 0.302075 2.090792 171 195 199
0.020769 0.395894 2.188614 162 186 188
0.055147 0.398502 2.270970 159 183 185
0.094592 0.392266 2.359203 135 154 158
0.090980 0.376741 2.400379 158 183 187
0.007698 0.374784 2.697736 169 166 151
0.095778 0.399005 2.779909 166 162 150
0.017242 0.385411 2.801248 166 163 146
0.062290 0.499916 -4.202380 138 130 119
0.024932 0.499561 -4.100796 155 151 142
0.003205 0.499060 -4.091302 156 153 144
0.026009 0.490588 -3.986958 155 152 143
0.000265 0.496103 1.816315 153 177 179
0.052892 0.495652 1.932328 152 176 176
0.006005 0.497317 2.042474 148 172 172
0.010241 0.494052 2.163266 151 175 177
0.043896 0.499599 2.243866 146 170 172
0.088442 0.497336 2.326913 125 143 145
0.096455 0.486490 2.418063 153 174 177
0.099843 0.489132 2.781818 159 157 145
0.037659 0.491197 2.803293 158 155 140
0.052804 0.590446 -4.201132 132 126 114
0.031550 0.598969 -4.103373 147 144 135
0.010014 0.598932 -4.096117 148 145 136
0.031350 0.591445 -3.994813 146 143 134
0.003113 0.596612 1.826420 142 163 164
0.044751 0.595514 1.921378 140 161 162
0.016226 0.593823 2.065130 117 134 133
0.010768 0.596917 2.163957 82 93 95
0.093600 0.598737 2.286351 78 80 77
0.091563 0.566604 2.305761 88 94 94
0.088974 0.592403 2.406960 140 161 164
0.088846 0.595088 2.795526 150 148 135
0.073286 0.595992 2.802519 149 147 134
0.054806 0.693098 -4.202089 124 118 106
0.027385 0.697517 -4.102225 141 138 129
0.005833 0.696849 -4.092772 141 138 129
0.032926 0.622307 -3.999555 143 140 131
0.017898 0.697939 1.835771 42 93 114
0.048748 0.695845 1.914757 43 92 109
0.015398 0.697578 2.062850 31 86 93
0.011518 0.698512 2.161513 37 88 107
0.099464 0.666214 2.219787 35 74 89
0.080883 0.693517 2.319497 44 59 78
0.088065 0.607084 2.402759 139 157 160
0.089419 0.610409 2.798328 148 146 133
0.092694 0.684925 2.802580 144 142 129
0.056797 0.795244 -4.203011 112 106 94
0.035101 0.761619 -4.101280 132 129 120
0.003013 0.761221 -4.089370 133 130 121
0.065841 0.744645 -3.998803 129 129 119
0.009010 0.798773 1.844556 39 87 107
0.040429 0.795315 1.908980 37 86 103
0.002791 0.796845 2.050085 31 78 98
0.001024 0.792717 2.139980 37 84 100
0.033905 0.793715 2.217396 35 82 98
0.093699 0.796956 2.346835 33 80 96
0.094491 0.726368 2.403936 68 78 79
0.097604 0.793731 2.774032 117 117 107
0.094499 0.730271 2.808789 141 139 127
0.047619 0.894692 -4.201290 108 102 90
0.009589 0.828301 -4.113364 123 123 113
0.002353 0.869666 -4.035065 122 119 110
0.000827 0.896222 1.842807 27 76 93
0.071499 0.898786 1.977856 141 184 164
0.095463 0.894360 2.005158 232 247 236
0.015930 0.898053 2.116585 54 86 101
0.073380 0.899630 2.217944 247 254 251
0.093926 0.893197 2.350227 33 75 87
0.001848 0.804277 2.481305 74 79 75
0.010034 0.865000 2.595146 106 106 96
0.009851 0.881422 2.600612 106 104 92
0.094954 0.887862 2.781603 107 107 97
0.045336 0.892351 2.805365 107 107 97
0.059433 0.930650 -4.204184 108 102 90
0.018572 0.902536 -4.114558 113 113 103
0.002941 0.994242 -4.032161 118 115 106
0.090935 0.996851 -3.413880 122 115 107
0.079725 0.993593 -3.307507 117 110 102
0.069579 0.990031 -3.210573 119 112 104
0.058910 0.985582 -3.107899 117 110 102
0.069756 0.982697 -3.094213 115 108 100
0.093309 0.994954 0.726059 130 126 123
0.040132 0.997758 0.801340 127 123 120
0.021644 0.999674 0.901783 124 120 117
0.033591 0.990768 1.698498 79 88 87
0.022517 0.990602 1.701320 77 86 85
0.081515 0.996519 1.895962 228 250 201
0.051978 0.998250 1.987970 150 231 173
0.076782 0.998319 2.021161 152 242 177
0.027836 0.901909 2.125271 98 146 130
0.098443 0.950380 2.246678 132 197 163
0.094739 0.900389 2.331311 28 70 82
0.092145 0.966782 2.426646 28 74 89
0.005316 0.950673 2.683006 101 99 87
0.091893 0.997296 2.790051 102 102 92
0.059376 0.984974 2.804338 102 102 90
0.079112 1.031742 -4.106062 94 94 86
0.002350 1.017853 -4.031049 115 112 103
0.076870 1.027610 -3.902624 107 106 102
0.070251 1.023807 -3.804717 112 111 107
0.043937 1.018456 -3.701949 118 117 113
0.056680 1.016535 -3.603228 117 116 112
0.032488 1.016324 -3.502231 117 116 112
0.043610 1.015664 -3.400412 120 119 115
0.085102 1.014937 -3.301292 114 113 109
0.091368 1.014482 -3.200880 111 110 106
0.081931 1.012892 -3.102483 110 109 105
0.072381 1.012595 -3.001548 110 109 105
0.094670 1.013836 -2.901296 106 105 103
0.001736 1.011532 -2.851518 99 98 96
0.000571 1.002880 -2.755518 109 110 105
0.091762 1.000074 0.851489 128 124 122
0.088207 1.000749 0.901643 127 123 120
0.063250 1.004867 1.002006 125 124 120
0.055446 1.005814 1.100453 123 124 119
0.076475 1.007263 1.201278 123 123 121
0.059622 1.009288 1.301374 107 107 105
0.084246 1.012451 1.400173 117 119 116
0.012504 1.012302 1.501332 108 112 111
0.084023 1.015348 1.603103 112 116 115
0.078669 1.016920 1.703022 111 115 114
0.097939 1.019743 1.806049 108 113 106
0.004324 1.017567 1.901605 85 91 87
0.088624 1.015845 2.026332 130 225 155
0.097581 1.022659 2.127705 104 175 126
0.094354 1.020936 2.213267 72 130 95
0.091012 1.009005 2.321108 61 120 97
0.095373 1.097173 2.682879 97 98 92
0.091446 1.026416 2.785570 100 100 90
0.058367 1.030771 2.803930 98 98 86
0.093319 1.115260 2.525590 106 108 103
0.094563 1.108960 2.630831 101 103 98
0.104614 -1.700597 -3.141125 80 81 75
0.102524 -1.701060 -3.088129 75 80 74
0.107502 -1.702919 -0.201967 97 93 88
0.105033 -1.706705 -0.101439 103 100 95
0.103858 -1.707104 -0.001070 106 103 98
0.113096 -1.709992 0.097807 107 103 100
0.101711 -1.709208 0.198215 109 105 102
0.106939 -1.708760 0.296895 111 108 103
0.105644 -1.706617 0.396878 107 106 101
0.113374 -1.702881 0.496045 106 105 100
0.114766 -1.700846 0.599294 103 102 97
0.116883 -1.700024 0.627030 102 101 96
0.125204 -1.714328 0.798587 108 109 103
0.128840 -1.713845 0.898576 98 99 93
0.133939 -1.701183 0.992028 87 88 83
0.118058 -1.705481 1.093594 84 86 81
0.101171 -1.706973 1.140347 84 86 81
0.186081 -1.713828 1.298345 87 92 86
0.108767 -1.713637 1.398326 85 90 86
0.115367 -1.714924 1.498477 86 90 87
0.109535 -1.714811 1.599594 90 92 87
0.196818 -1.715983 1.698223 92 94 89
0.138983 -1.714827 1.798894 93 98 94
0.190121 -1.714866 1.897867 100 105 101
0.187140 -1.716703 1.994955 101 106 102
0.109773 -1.707281 2.092351 140 151 147
0.127055 -1.703485 2.189956 40 42 39
0.195371 -1.703286 2.263411 39 41 38
0.103940 -1.702909 2.399338 43 45 42
0.131503 -1.700082 2.494757 43 45 42
0.198049 -1.706392 2.567944 43 54 57
0.180377 -1.600483 -3.183534 101 71 43
0.100917 -1.694171 -3.095754 67 67 65
0.102100 -1.689515 -2.996636 72 74 71
0.103078 -1.689146 -2.898573 75 77 74
0.106684 -1.695146 -2.796615 92 97 93
0.101715 -1.694142 -2.698052 89 91 88
0.104295 -1.691789 -2.599576 119 121 116
0.106971 -1.695653 -2.498188 132 137 130
0.106549 -1.691963 -2.393407 128 131 124
0.175878 -1.690148 -2.299538 140 141 135
0.198151 -1.693561 -2.198110 143 146 139
0.167836 -1.699911 -0.200718 97 94 89
0.173003 -1.699880 -0.197406 97 94 89
0.154758 -1.699722 0.597221 104 103 98
0.118813 -1.698925 0.697315 99 98 94
0.197530 -1.654304 0.793760 95 92 85
0.191487 -1.652193 0.899166 94 91 86
0.192435 -1.651829 0.998321 94 91 84
0.191980 -1.651616 1.090927 91 88 83
0.191462 -1.652702 1.192442 92 89 84
0.190943 -1.651879 1.299554 92 91 86
0.199147 -1.652052 1.392886 96 95 91
0.197144 -1.652169 1.497864 99 98 94
0.193198 -1.652755 1.589287 99 98 94
0.189016 -1.652962 1.685721 102 101 97
0.196395 -1.653794 1.783854 102 101 96
0.192028 -1.654712 1.894249 103 102 98
0.197979 -1.654945 1.976717 103 104 99
0.193423 -1.654720 2.098364 101 102 97
0.199813 -1.652949 2.187461 101 102 97
0.192871 -1.651416 2.288270 100 101 96
0.199588 -1.649726 2.387838 99 100 95
0.192292 -1.646102 2.495666 96 97 92
0.196982 -1.643840 2.566803 91 92 87
0.194667 -1.609713 2.696874 97 74 58
0.179614 -1.608728 2.701616 97 74 58
0.106734 -1.611083 2.801627 50 31 17
0.199266 -1.567591 -3.202841 127 94 59
0.188749 -1.501351 -3.166599 62 55 49
0.196834 -1.501836 -3.093986 78 58 33
0.127137 -1.502485 2.096916 110 129 133
0.161002 -1.502884 2.184832 108 127 131
0.189945 -1.509209 2.254910 106 125 129
0.147126 -1.509113 2.380992 95 114 118
0.157508 -1.509970 2.439771 90 105 110
0.179472 -1.513562 2.568985 97 104 106
0.191736 -1.504750 2.611611 117 112 108
0.198429 -1.506227 2.752662 188 182 170
0.125015 -1.510594 2.805054 136 132 121
0.197332 -1.401720 -3.157347 31 30 26
0.191197 -1.402729 -3.079326 42 42 40
0.109891 -1.403358 2.075092 116 135 139
0.150238 -1.408619 2.172306 117 135 137
0.118301 -1.407271 2.285862 110 128 132
0.138923 -1.400891 2.354444 111 129 131
0.159726 -1.405422 2.454933 91 101 102
0.181609 -1.408404 2.595480 107 111 110
0.193679 -1.403623 2.653726 143 138 132
0.197113 -1.416728 2.752302 192 186 174
0.127347 -1.407196 2.803742 145 138 130
0.197634 -1.302357 -3.156834 47 46 42
0.186842 -1.301800 -3.071300 42 42 40
0.113152 -1.308218 2.080850 127 146 150
0.153701 -1.309193 2.176069 131 149 151
0.120033 -1.320631 2.297964 122 138 143
0.140774 -1.301618 2.375111 123 141 145
0.161955 -1.310148 2.459411 107 126 130
0.172789 -1.308245 2.524875 119 129 131
0.195882 -1.305103 2.667414 150 146 137
0.198553 -1.310347 2.746521 193 189 178
0.129669 -1.304359 2.802381 146 142 133
0.179567 -1.200987 -3.122379 36 34 33
0.188240 -1.201822 -3.083514 41 40 36
0.116474 -1.212043 2.084564 141 160 164
0.157120 -1.211123 2.183921 140 159 163
0.101640 -1.203778 2.274905 132 150 152
0.142777 -1.200142 2.392453 127 145 149
0.164162 -1.205002 2.475739 114 131 138
0.174888 -1.213115 2.536165 123 133 134
0.197992 -1.207808 2.686705 157 153 144
0.199951 -1.206946 2.741779 195 191 180
0.115605 -1.203032 2.807229 149 145 134
0.193920 -1.183702 -3.110053 41 34 28
0.167711 -1.133572 -3.021307 46 39 34
0.199274 -1.139695 -2.943973 53 44 35
0.177150 -1.111114 -2.884719 54 49 43
0.120383 -1.100478 2.084419 147 168 171
0.160597 -1.111303 2.187691 146 165 169
0.103307 -1.106669 2.293288 136 155 159
0.134257 -1.109566 2.367278 134 153 159
0.166266 -1.110763 2.484723 117 135 139
0.177265 -1.104290 2.550372 129 135 133
0.199880 -1.122720 2.699762 161 157 146
0.186917 -1.105651 2.742473 195 191 180
0.100318 -1.101688 2.803976 142 139 130
0.186675 -1.001900 -4.308684 131 123 120
