ply
format ascii 1.0
element vertex 1268
property float x
property float y
property float z
property uchar red
property uchar green
property uchar blue
end_header
1.097150 -2.678596 2.396168 40 36 33
1.084432 -2.658420 2.493110 39 35 32
1.000747 -2.655525 2.531475 36 35 33
1.003254 -2.698331 2.897594 52 52 50
1.017731 -2.693446 2.938928 44 44 42
1.018338 -2.697866 3.003764 45 45 43
1.030489 -2.652097 3.173253 19 17 20
1.046841 -2.659436 3.268453 32 30 31
1.097973 -2.650140 3.352048 43 39 38
1.145304 -5.800055 3.442731 16 12 11
1.113745 -5.808231 3.506454 17 11 11
1.174561 -5.715147 -0.099026 24 24 16
1.111051 -5.714243 0.092147 32 29 20
1.188784 -5.714957 0.181122 31 28 21
1.111024 -5.706392 0.267094 31 26 20
1.133517 -5.705493 0.390804 32 27 21
1.146304 -5.705266 0.458304 28 30 25
1.104685 -5.700842 0.556309 32 27 21
1.109233 -5.703498 0.628409 29 30 24
1.105476 -5.704611 0.776554 29 32 25
1.196501 -5.711861 0.888661 32 31 26
1.100986 -5.706708 0.913580 30 30 22
1.127681 -5.710442 1.036575 23 22 18
1.123575 -5.711544 1.165641 23 19 16
1.119980 -5.712208 1.290746 19 18 14
1.112146 -5.710263 1.355351 24 19 15
1.117749 -5.711437 1.415998 17 18 13
1.114060 -5.712500 1.529045 17 16 12
1.111844 -5.711987 1.643255 17 16 12
1.108658 -5.712720 1.748326 17 16 12
1.105862 -5.713116 1.850426 18 17 13
1.101867 -5.715000 1.943363 18 17 13
1.126741 -5.714865 2.039306 17 16 12
1.123473 -5.715539 2.129329 18 17 13
1.122258 -5.713931 2.223588 20 16 13
1.118790 -5.715061 2.305557 17 16 12
1.174467 -5.700288 2.425790 14 13 11
1.147331 -5.700536 2.500694 16 15 13
1.118721 -5.701099 2.646055 14 14 12
1.115395 -5.702605 2.712967 15 13 14
1.112360 -5.701526 2.852903 14 13 9
1.110227 -5.701831 2.917055 14 13 11
1.105079 -5.703687 3.035872 17 13 14
1.184271 -5.705890 3.101965 18 14 11
1.117979 -5.706266 3.204929 18 14 13
1.113120 -5.707694 3.308437 15 11 11
1.108661 -5.708877 3.406915 15 14 10
1.105167 -5.709124 3.502571 5 10 6
1.173040 -5.710647 3.602039 12 12 10
1.198788 -5.713214 3.729884 11 11 9
1.107118 -5.716803 3.830219 18 14 13
1.104804 -5.716027 3.906320 15 11 10
1.114065 -5.719228 4.005105 15 11 10
1.133733 -5.701286 9.283430 224 223 229
1.187876 -5.700233 9.382496 69 70 74
1.183675 -5.705401 9.477583 67 66 72
1.194664 -5.706420 9.541163 118 118 128
1.193237 -5.708999 9.622336 175 172 191
1.187327 -5.713344 9.791344 124 115 118
1.176731 -5.712875 9.876511 120 111 112
1.180916 -5.704776 9.924572 47 45 48
1.198058 -5.711080 10.062368 29 27 30
1.193045 -5.703442 10.189960 18 16 19
1.190723 -5.700199 10.247411 18 18 18
1.192551 -5.703626 10.349511 18 16 17
1.194983 -5.755254 10.438937 14 12 15
1.183851 -5.733488 10.596157 44 43 39
1.192957 -5.721498 10.699146 38 37 35
1.189716 -5.711813 10.747320 38 34 31
1.172060 -5.700410 10.890966 93 86 80
1.159391 -5.701494 10.908944 90 83 77
1.170607 -5.703317 11.010865 83 80 75
1.169775 -5.700722 11.115519 81 80 75
1.172846 -5.700043 11.255400 89 86 81
1.191321 -5.706205 11.360360 101 100 95
1.189289 -5.703256 11.452057 102 101 96
1.192881 -5.702724 11.551116 100 99 94
1.194232 -5.701142 11.651225 120 119 114
1.180632 -5.700543 11.775068 124 123 118
1.145486 -5.700327 11.811656 124 123 118
1.193465 -5.707831 11.902462 99 100 95
1.198765 -5.702263 12.006553 145 144 139
1.183889 -5.660206 -0.006465 13 9 1
1.179137 -5.678795 0.015997 27 22 19
1.103256 -5.690115 0.165110 35 32 27
1.127815 -5.693768 0.289385 35 32 27
1.180203 -5.698945 0.386022 36 31 27
1.122304 -5.696098 0.429308 36 31 25
1.116512 -5.698988 0.560770 34 31 24
1.100571 -5.699891 0.685186 34 27 19
1.112742 -5.687498 0.757506 28 26 19
1.103856 -5.690957 0.852279 27 25 16
1.119273 -5.692033 0.937837 22 22 14
1.111534 -5.693705 1.031958 18 17 13
1.102990 -5.697080 1.117335 17 17 15
1.131669 -5.699308 1.267822 13 12 8
1.190726 -5.663907 1.345265 18 16 12
1.125612 -5.667562 1.446314 18 16 12
1.121145 -5.670262 1.553965 18 13 9
1.114732 -5.675339 1.647741 17 12 9
1.109545 -5.679065 1.742874 17 13 10
1.104367 -5.682862 1.833902 16 12 11
1.100140 -5.685625 1.925186 13 13 12
1.120680 -5.690266 2.009696 11 11 9
1.167662 -5.693358 2.100262 15 15 10
1.109554 -5.695821 2.263489 9 11 8
1.106154 -5.697477 2.342691 14 10 9
1.102467 -5.699549 2.417707 14 12 11
1.110547 -5.676071 2.532544 19 18 14
1.119449 -5.686984 2.637889 19 18 16
1.105185 -5.697737 2.738987 19 18 16
1.126521 -5.678365 8.472694 51 51 50
1.132205 -5.681491 8.603294 115 109 109
1.196126 -5.696074 8.778411 37 36 34
1.198881 -5.695561 8.864222 83 72 72
1.182392 -5.694743 8.968448 103 93 92
1.180431 -5.692765 9.058479 129 121 123
1.194932 -5.689966 9.133925 255 253 255
1.198147 -5.689411 9.231362 146 145 150
1.178530 -5.687804 9.347741 150 141 146
1.187398 -5.689000 9.454826 161 150 154
1.185535 -5.686813 9.560818 151 142 147
1.125569 -5.687103 9.614007 155 149 152
1.189977 -5.691059 9.753588 142 132 130
1.193892 -5.687680 9.826504 70 65 71
1.191557 -5.683616 9.998683 24 22 25
1.186209 -5.683425 10.099794 26 22 26
1.193370 -5.680752 10.184255 26 21 25
1.189654 -5.681109 10.293066 33 31 32
1.173170 -5.682415 10.311662 48 44 45
1.181697 -5.605426 10.462154 41 40 37
1.124400 -5.677555 10.597893 122 115 107
1.135961 -5.670708 10.664794 106 99 91
1.149979 -5.600305 10.797378 38 37 37
1.186056 -5.619774 10.853967 88 84 81
1.198072 -5.611465 10.927092 108 101 93
1.188898 -5.661370 11.004986 101 94 86
1.186406 -5.650570 11.199524 103 100 95
1.196972 -5.642009 11.275992 110 110 103
1.184518 -5.632024 11.370891 119 116 109
1.190539 -5.621259 11.447590 114 111 104
1.194843 -5.609562 11.524561 116 111 105
1.198928 -5.671186 11.627789 147 147 139
1.192063 -5.664200 11.730184 131 131 123
1.109859 -5.661596 11.802270 107 107 99
1.198919 -5.696261 11.970846 128 128 120
1.194279 -5.691779 12.077882 97 96 91
1.188877 -5.686895 12.187338 100 101 95
1.171408 -5.687301 12.207840 101 102 96
1.196359 -5.676619 12.395581 101 102 98
1.178377 -5.677037 12.416685 95 95 93
1.186001 -5.669248 12.509224 98 98 96
1.197957 -5.663011 12.609067 114 113 108
1.187439 -5.655291 12.729052 120 119 115
1.195018 -5.646652 12.829321 107 107 99
1.184182 -5.638490 12.955831 99 99 91
1.196269 -5.631180 13.067818 98 98 90
1.154641 -5.631040 13.110467 103 100 93
1.190266 -5.646984 13.233586 108 108 98
1.199655 -5.592096 10.961222 111 106 100
1.197778 -5.558136 11.060636 126 123 118
1.188328 -5.520741 11.157308 112 108 105
1.167099 -5.500010 11.211443 114 110 107
1.100125 -5.499952 11.264936 139 135 126
1.101976 -2.903497 8.354736 61 56 52
1.138712 -2.911104 8.415872 62 57 53
1.166754 -2.916464 8.500910 61 58 53
1.176153 -2.921934 8.608044 67 62 58
1.105130 -2.914563 8.714684 68 63 59
1.133067 -2.807718 1.292257 29 28 23
1.103308 -2.804752 1.381639 30 29 24
1.119126 -2.807115 1.462369 28 27 22
1.107955 -2.806013 1.588785 40 39 34
1.126011 -2.801986 1.665470 23 21 24
1.108178 -2.808620 1.992177 48 48 46
1.124936 -2.801821 2.056597 48 48 46
1.120967 -2.800760 2.363506 34 34 34
1.154766 -2.802958 3.777233 32 28 29
1.167887 -2.804867 3.870432 33 29 28
1.196980 -2.805591 3.961142 30 27 24
1.163813 -2.800867 8.833460 62 57 53
1.194134 -2.802500 8.919953 65 60 56
1.184199 -2.804620 9.044872 65 60 56
1.107928 -2.803597 9.118218 67 59 57
1.127380 -2.808483 9.208502 65 60 56
1.152667 -2.812075 9.304340 69 61 59
1.171916 -2.811833 9.429799 65 61 58
1.155072 -2.793740 1.393004 33 30 25
1.121340 -2.788610 1.478573 34 31 26
1.196771 -2.781598 1.598955 33 30 25
1.142927 -2.779284 1.694227 37 33 32
1.157392 -2.790380 1.799335 11 9 12
1.121811 -2.783330 1.871735 46 45 43
1.152966 -2.773831 1.998147 45 45 43
1.120983 -2.769973 2.073382 45 44 40
1.107055 -2.790376 2.191798 39 39 37
1.123755 -2.784809 2.253116 44 42 43
1.102396 -2.790125 2.347022 46 46 48
1.112393 -2.780646 2.484458 42 42 44
1.107023 -2.779264 2.558372 40 41 43
1.112535 -2.798450 2.652424 39 37 38
1.102785 -2.795729 2.789877 40 38 39
1.120550 -2.793204 2.858652 39 37 38
1.111253 -2.791057 2.984897 37 36 34
1.107510 -2.790832 3.047678 39 39 39
1.101161 -2.791316 3.170383 43 45 44
1.113914 -2.789011 3.284189 35 37 36
1.108153 -2.789999 3.394693 30 34 35
1.104989 -2.790008 3.446309 28 34 32
1.122826 -2.794857 3.564061 13 19 17
1.138745 -2.798419 3.672194 28 27 25
1.155629 -2.799970 3.726241 29 25 24
1.107312 -2.775226 3.869421 35 29 29
1.104039 -2.781154 3.994345 29 28 26
1.100252 -2.782901 4.068244 28 28 26
1.112702 -2.786686 4.177249 21 21 17
1.144555 -2.797460 8.636681 61 53 51
1.199975 -2.796814 8.702447 62 54 52
1.188466 -2.799331 8.818291 62 57 53
1.135357 -2.750930 8.902061 61 56 53
1.115263 -2.754561 9.011536 61 57 54
1.115016 -2.757670 9.108301 62 58 55
1.112238 -2.761663 9.207200 66 58 56
1.110956 -2.765296 9.310056 67 59 57
1.110968 -2.768642 9.417043 67 59 57
1.121491 -2.774917 9.504843 67 59 57
1.141695 -2.778543 9.600148 66 58 56
1.137854 -2.783640 9.715604 64 60 57
1.157023 -2.788173 9.817006 62 58 55
1.144665 -2.747556 9.914430 58 54 55
1.115763 -2.745509 10.012410 59 55 54
1.131339 -2.744818 10.107354 60 56 55
1.154846 -2.741582 10.210053 59 58 56
1.148094 -2.774848 10.301887 57 56 54
1.145035 -2.774298 10.415320 59 58 54
1.159814 -2.774667 10.514219 60 59 57
1.172348 -2.776008 10.614948 61 60 58
1.196377 -2.773631 10.726945 62 61 57
1.115674 -2.771808 10.801742 65 61 58
1.160625 -2.769420 10.901847 69 66 61
1.177855 -2.769413 11.019388 72 68 65
1.198068 -2.768627 11.143527 72 71 66
1.135240 -2.766600 11.205046 71 70 65
1.174649 -2.767032 11.313543 72 71 67
1.147829 -2.761177 11.408715 72 69 64
1.190369 -2.760033 11.521742 73 70 65
1.109265 -2.758072 11.608900 72 71 66
1.183984 -2.738324 11.720031 69 68 63
1.100830 -2.738855 11.801897 70 69 64
1.182583 -2.755478 11.940287 70 71 66
1.123263 -2.755311 12.000563 70 71 66
1.157002 -2.753431 12.115955 74 75 70
1.182184 -2.747073 12.268489 77 78 73
1.143532 -2.745837 12.313450 77 78 73
1.188599 -2.739857 12.451487 78 79 74
1.127618 -2.738582 12.519137 78 79 74
1.117112 -2.719740 12.610671 75 74 70
1.142577 -2.700162 12.716808 75 74 69
1.191195 -2.716676 12.821936 83 82 77
1.133299 -2.716105 12.910992 67 66 63
1.190208 -2.709102 13.028123 85 86 80
1.170458 -2.740815 13.106936 97 94 89
1.168691 -2.693266 2.296845 39 35 32
1.153066 -2.670457 2.393137 40 35 32
1.101228 -2.659189 2.485863 39 35 32
1.108935 -2.697461 2.981049 52 52 48
1.113826 -2.671726 3.060064 34 33 31
1.101186 -2.672858 3.198431 29 28 24
1.109595 -2.671799 3.276536 38 37 35
1.117724 -2.653465 3.353066 43 39 38
1.199080 -2.698849 12.650495 75 74 69
1.126293 -2.699423 12.742047 69 70 67
1.217395 -5.802908 3.431222 11 10 7
1.204400 -5.714207 -0.113524 21 21 11
1.221990 -5.719517 -0.000975 30 27 20
1.216021 -5.716148 0.158923 31 28 21
1.236724 -5.714544 0.287977 31 28 21
1.238697 -5.701527 0.343587 35 32 25
1.215740 -5.707847 0.443781 31 30 26
1.209132 -5.709110 0.599753 29 31 26
1.225085 -5.703393 0.620208 35 32 24
1.202698 -5.710483 0.747710 31 32 27
1.229017 -5.713005 0.882763 32 31 27
1.204631 -5.708840 0.982699 27 24 17
1.221953 -5.714821 1.015615 34 30 27
1.215533 -5.716129 1.144519 25 21 20
1.210520 -5.715955 1.273574 25 20 17
1.236432 -5.715695 1.396671 18 17 13
1.206914 -5.714300 1.402779 19 18 14
1.202096 -5.714429 1.519800 19 18 14
1.225801 -5.715841 1.626638 20 19 15
1.221250 -5.715351 1.736679 19 18 14
1.216753 -5.715043 1.841702 18 17 15
1.211760 -5.715593 1.939639 16 16 14
1.206636 -5.716521 2.032537 16 15 11
1.202772 -5.716075 2.126575 17 16 12
1.224577 -5.716418 2.214271 18 17 13
1.202551 -5.700076 2.348021 13 13 10
1.222195 -5.701323 2.429385 15 14 12
1.217186 -5.702682 2.504130 16 15 13
1.208452 -5.704227 2.649853 16 14 15
1.204956 -5.704108 2.721921 16 15 13
1.219037 -5.705556 2.857427 16 16 18
1.214797 -5.706382 2.920055 16 16 16
1.207992 -5.706275 3.044732 16 15 13
1.204224 -5.706892 3.102343 17 16 14
1.215706 -5.709998 3.210515 18 14 11
1.209768 -5.709235 3.320023 15 15 15
1.203198 -5.709762 3.420100 16 15 13
1.215344 -5.710546 3.517227 14 13 11
1.208606 -5.711477 3.605963 11 10 7
1.272456 -5.713085 3.700412 9 7 10
1.224871 -5.716780 3.807485 10 10 8
1.269578 -5.711385 3.941997 10 11 6
1.212121 -5.718883 4.007648 15 13 14
1.294664 -5.720214 9.041646 3 2 0
1.297180 -5.720777 9.194875 6 4 5
1.299357 -5.724745 9.290293 9 3 5
1.274711 -5.701774 9.394293 100 99 104
1.255187 -5.701082 9.407624 98 99 103
1.276864 -5.708551 9.551545 89 88 96
1.292249 -5.710588 9.619273 165 162 174
1.283169 -5.712817 9.788356 131 124 126
1.298452 -5.714686 9.862825 127 118 119
1.271487 -5.707921 9.943597 97 91 95
1.296777 -5.706991 10.020448 92 87 92
1.285856 -5.701873 10.166914 21 19 24
1.206867 -5.700105 10.241449 16 14 17
1.280503 -5.700374 10.345674 18 16 17
1.240458 -5.704869 10.402006 20 18 19
1.296152 -5.736463 10.563217 18 13 17
1.286623 -5.715245 10.655369 44 40 37
1.293956 -5.700735 10.760350 34 31 27
1.224546 -5.707067 10.817380 77 74 69
1.206296 -5.700870 10.931622 89 85 77
1.295934 -5.724751 11.020566 85 82 75
1.288247 -5.701503 11.145380 80 77 70
1.243750 -5.700586 11.280177 92 91 86
1.296490 -5.706542 11.351110 96 95 91
1.297421 -5.704205 11.445519 103 102 97
1.281512 -5.701912 11.561222 105 103 98
1.291680 -5.703470 11.669599 97 94 89
1.252569 -5.701625 11.703072 98 97 92
1.292701 -5.707896 11.865084 123 124 118
1.286090 -5.701552 11.991039 105 104 99
1.273337 -5.701132 12.012368 100 101 95
1.281806 -5.698217 -0.241947 23 19 8
1.262546 -5.623838 -0.102728 6 5 3
1.234113 -5.654964 -0.067174 18 17 12
1.212373 -5.676943 0.006722 27 23 20
1.278801 -5.697761 0.190658 31 28 19
1.218056 -5.696319 0.229636 37 32 28
1.209670 -5.699862 0.366335 35 32 25
1.215637 -5.675546 0.411445 28 25 18
1.204519 -5.679446 0.516690 30 27 20
1.219430 -5.679749 0.616339 29 26 19
1.208306 -5.684063 0.712385 29 26 18
1.222372 -5.684790 0.803313 29 26 17
1.203209 -5.688915 0.993648 26 23 16
1.215363 -5.691996 1.067260 21 18 11
1.295823 -5.659252 1.112738 27 26 22
1.255653 -5.663953 1.223504 18 17 15
1.219630 -5.665203 1.343556 15 14 10
1.212221 -5.669252 1.450487 17 15 11
1.204863 -5.673434 1.552293 18 13 10
1.225110 -5.678758 1.649023 19 14 10
1.218620 -5.681541 1.748003 17 12 8
1.211146 -5.685786 1.837467 15 11 8
1.205763 -5.687540 1.932634 13 14 9
1.225516 -5.691118 2.021113 13 12 7
1.218724 -5.694450 2.103585 16 15 10
1.207743 -5.698285 2.269230 13 13 11
1.252211 -5.699760 2.356212 16 15 11
1.209949 -5.674741 2.455241 22 20 15
1.202191 -5.679417 2.514362 21 20 18
1.209472 -5.689488 2.622809 20 20 18
1.291107 -5.694217 8.872020 79 69 68
1.299531 -5.694883 8.963469 98 88 86
1.278181 -5.692213 9.070716 123 114 117
1.277259 -5.690005 9.165177 255 253 255
1.236429 -5.687524 9.296386 112 107 113
1.266042 -5.688620 9.385071 153 144 149
1.293496 -5.688760 9.475694 173 162 168
1.249477 -5.687739 9.509421 150 140 145
1.294041 -5.694977 9.684266 152 139 146
1.279427 -5.691236 9.770992 150 141 143
1.286697 -5.688476 9.846334 153 148 154
1.295293 -5.686003 9.924467 49 48 54
1.286571 -5.684141 10.021873 26 24 27
1.296177 -5.681766 10.105633 27 23 24
1.298687 -5.677768 10.299666 26 22 23
1.277323 -5.654412 10.379232 23 19 20
1.288877 -5.621429 10.441581 40 36 37
1.286370 -5.639543 10.591536 42 38 35
1.261553 -5.637100 10.604701 39 35 32
1.283746 -5.671109 10.756001 106 101 97
1.215226 -5.602880 10.874571 92 87 85
1.221899 -5.612301 10.911509 103 96 90
1.298180 -5.648645 11.083848 108 103 97
1.294112 -5.641389 11.180357 113 112 107
1.286045 -5.632542 11.276568 105 104 100
1.295596 -5.622589 11.354014 100 99 94
1.281626 -5.611250 11.450384 121 116 112
1.218054 -5.610535 11.507340 115 112 107
1.290594 -5.665663 11.635786 106 101 95
1.211159 -5.664253 11.710780 140 141 133
1.292742 -5.698076 11.879373 131 130 125
1.286248 -5.692261 11.982370 126 127 119
1.284856 -5.688526 12.093330 101 100 95
1.296102 -5.682119 12.181668 95 94 90
1.291178 -5.676588 12.295167 93 92 88
1.273170 -5.677007 12.316301 97 96 91
1.285393 -5.670597 12.411202 105 106 100
1.295878 -5.663130 12.506562 108 109 104
1.286546 -5.655337 12.625154 105 106 101
1.278305 -5.647885 12.748644 116 115 110
1.288392 -5.639458 12.852145 121 119 123
1.279698 -5.631455 12.982314 100 100 92
1.260095 -5.631911 13.005320 99 99 91
1.295040 -5.646588 13.193033 100 97 88
1.284552 -5.646531 13.216413 101 98 89
1.288571 -5.522756 -0.143006 68 60 47
1.298073 -5.562256 10.999263 115 110 104
1.297449 -5.520194 11.066786 133 130 125
1.251807 -5.519796 11.101538 126 123 118
1.286632 -5.599126 11.528061 117 114 109
1.285759 -5.453115 -0.148656 68 62 48
1.291005 -4.527681 -0.179601 80 72 53
1.201839 -2.925474 8.564880 66 61 57
1.206373 -2.815377 1.443836 28 24 21
1.212372 -2.805642 1.561185 38 34 31
1.202860 -2.801423 1.643993 40 36 33
1.257866 -2.801500 1.738934 29 25 22
1.203041 -2.800469 2.042199 49 49 47
1.208444 -2.800720 3.787438 34 30 29
1.202455 -2.803092 3.876286 31 27 26
1.214173 -2.805154 3.965056 31 27 24
1.238145 -2.806860 4.089455 26 27 22
1.265165 -2.809239 4.173472 29 30 25
1.277585 -2.809617 4.212187 27 27 25
1.281316 -2.800009 8.853156 64 59 55
1.214853 -2.802176 8.902846 65 60 56
1.226416 -2.803961 9.010014 65 60 56
1.226638 -2.809102 9.116175 68 60 58
1.210270 -2.813299 9.246407 66 61 57
1.202929 -2.793498 1.374163 33 30 25
1.276649 -2.786080 1.498728 28 28 20
1.220095 -2.782195 1.592031 33 30 25
1.268364 -2.795706 1.699624 34 33 29
1.207984 -2.791138 1.788792 13 11 14
1.283722 -2.778816 1.898468 7 6 4
1.201712 -2.774788 1.988294 46 46 45
1.243677 -2.793057 2.099173 49 49 47
1.208345 -2.788623 2.173126 49 48 46
1.213082 -2.777040 2.295999 37 37 35
1.210122 -2.789765 2.361244 30 30 32
1.202172 -2.787206 2.436035 47 47 49
1.210388 -2.779452 2.573284 44 44 46
1.203608 -2.789533 2.652900 39 38 36
1.213293 -2.785070 2.791750 39 39 40
1.208126 -2.785427 2.862394 38 38 39
1.219413 -2.784010 2.997382 38 38 38
1.215041 -2.785188 3.064069 39 39 40
1.206175 -2.786771 3.189238 36 38 37
1.202193 -2.787834 3.249861 38 40 39
1.214457 -2.788725 3.368560 32 34 33
1.206690 -2.790647 3.477546 30 32 31
1.218944 -2.792414 3.585946 32 32 32
1.213406 -2.796521 3.689194 34 30 31
1.210821 -2.798566 3.738807 33 29 30
1.281631 -2.799733 3.806119 31 31 31
1.212348 -2.779343 3.966537 34 29 33
1.203124 -2.782440 4.079137 30 28 26
1.211991 -2.786376 4.187897 34 34 32
1.215574 -2.797745 8.684382 59 55 54
1.285892 -2.798961 8.732664 64 56 54
1.208830 -2.799013 8.801478 64 59 55
1.267799 -2.746756 8.903294 61 57 54
1.242213 -2.752589 9.012183 62 58 55
1.241209 -2.756590 9.109597 62 58 55
1.245938 -2.758982 9.212619 60 56 53
1.268698 -2.761917 9.300558 56 52 49
1.264157 -2.767461 9.406173 69 61 59
1.260891 -2.772763 9.515933 69 64 60
1.288377 -2.775130 9.615557 67 62 58
1.227504 -2.785645 9.763187 63 59 56
1.257620 -2.741819 9.811984 58 54 53
1.273575 -2.741696 9.901298 59 55 52
1.267194 -2.742078 10.009894 59 55 54
1.290064 -2.739897 10.109151 57 56 54
1.241002 -2.777110 10.215853 56 55 53
1.257603 -2.777387 10.309396 59 55 54
1.273860 -2.777992 10.405800 58 57 55
1.288798 -2.779259 10.504571 59 58 56
1.294051 -2.776864 10.631869 62 61 59
1.214572 -2.774747 10.706957 62 61 57
1.257656 -2.773728 10.802138 67 63 60
1.277314 -2.773625 10.917699 70 66 63
1.280415 -2.771698 11.060942 73 70 65
1.240924 -2.769610 11.103443 72 69 64
1.282809 -2.769968 11.209921 75 72 67
1.245339 -2.764041 11.301842 72 69 64
1.287265 -2.763872 11.410106 72 69 64
1.239385 -2.742363 11.501369 66 65 60
1.282609 -2.739663 11.613141 67 66 62
1.295070 -2.733432 11.780401 69 70 64
1.281450 -2.755755 11.839827 68 69 63
1.202356 -2.755533 11.920195 69 70 65
1.260801 -2.752573 12.016169 71 73 68
1.282764 -2.748481 12.160603 76 77 72
1.241437 -2.748365 12.202596 76 77 72
1.289108 -2.742347 12.337986 79 80 75
1.228299 -2.741073 12.405461 79 80 75
1.295905 -2.703300 12.500092 74 75 69
1.231472 -2.700330 12.600224 75 74 69
1.265728 -2.716460 12.712829 77 76 72
1.289079 -2.712359 12.862762 81 80 75
1.260830 -2.711428 12.910008 86 85 80
1.201724 -2.710795 13.001087 83 84 79
1.261914 -2.736223 13.122857 94 93 88
1.281285 -2.698643 2.199488 35 34 30
1.298523 -2.680070 2.290905 30 26 23
1.209407 -2.664946 2.395617 38 34 31
1.214560 -2.656999 2.419141 39 35 32
1.205602 -2.695954 3.088962 40 39 35
1.213361 -2.696658 3.175819 30 29 27
1.289949 -2.688310 3.297898 44 40 39
1.213557 -2.667682 3.353973 42 38 35
1.215291 -2.699589 12.625343 75 74 69
1.355564 -5.800345 3.385783 17 16 12
1.309109 -5.804935 3.420119 17 16 12
1.323756 -5.710445 -0.171516 25 21 10
1.309856 -5.716747 -0.043666 26 20 10
1.328054 -5.716716 0.086558 24 21 12
1.371656 -5.719454 0.183186 27 25 19
1.328536 -5.703251 0.288287 35 30 24
1.309603 -5.714171 0.373787 32 27 23
1.321426 -5.710685 0.426651 32 32 27
1.310884 -5.713768 0.575270 33 34 29
1.332530 -5.703909 0.691932 36 33 26
1.303188 -5.713479 0.731230 34 33 29
1.327973 -5.715211 0.870223 33 32 28
1.317672 -5.718432 0.997791 32 31 27
1.306207 -5.709265 1.043811 29 27 20
1.309694 -5.718911 1.130635 30 29 25
1.302404 -5.718903 1.259531 25 20 17
1.326286 -5.718803 1.382487 18 17 13
1.318106 -5.719969 1.496234 20 19 15
1.319864 -5.713121 1.535666 22 19 14
1.312579 -5.717884 1.617304 19 18 14
1.305891 -5.717806 1.726184 19 20 15
1.327740 -5.717818 1.829944 19 18 16
1.320236 -5.718824 1.926692 17 16 12
1.314007 -5.718415 2.024582 20 18 16
1.307955 -5.718105 2.118469 16 15 12
1.302700 -5.717026 2.211436 17 16 12
1.326043 -5.700408 2.364713 16 17 11
1.319483 -5.701419 2.443225 17 16 12
1.312812 -5.702866 2.517590 15 14 10
1.300107 -5.705615 2.659286 20 16 15
1.318011 -5.705358 2.735185 16 15 11
1.312010 -5.706319 2.801512 20 16 15
1.300282 -5.708535 2.927033 16 14 15
1.310875 -5.709978 3.050461 17 15 16
1.305186 -5.711118 3.106590 16 15 13
1.315136 -5.712522 3.219613 16 15 13
1.305819 -5.712391 3.327304 17 13 14
1.316229 -5.712232 3.432284 17 16 14
1.306551 -5.713294 3.525479 10 10 8
1.315215 -5.714836 3.615630 11 10 6
1.306665 -5.714884 3.701938 11 10 6
1.309716 -5.717854 3.819492 11 12 7
1.303054 -5.716031 3.900145 10 9 7
1.310164 -5.712920 4.017835 13 11 12
1.396476 -5.716131 8.792587 8 2 2
1.395606 -5.717906 8.880088 6 2 1
1.396122 -5.717283 8.954671 5 1 0
1.393451 -5.718285 9.046169 3 2 0
1.394552 -5.717930 9.124342 5 4 3
1.351746 -5.735092 9.297030 17 11 13
1.336566 -5.700538 9.302677 49 41 39
1.390890 -5.701049 9.458284 69 67 72
1.325372 -5.710095 9.590173 128 127 135
1.391241 -5.711082 9.614872 161 160 166
1.385204 -5.713395 9.786609 144 135 140
1.397128 -5.713461 9.859997 134 125 126
1.392577 -5.714159 9.951859 136 127 128
1.373183 -5.703200 10.015242 59 57 60
1.388666 -5.703198 10.146583 27 25 26
1.395398 -5.733836 10.291025 22 21 26
1.391601 -5.735848 10.378796 19 17 20
1.388004 -5.744342 10.492764 15 13 16
1.391131 -5.743238 10.566141 17 12 16
1.398282 -5.706207 10.669017 32 28 29
1.340676 -5.701229 10.711740 45 41 38
1.394896 -5.711391 10.841182 60 58 53
1.397462 -5.711392 10.964965 90 83 75
1.385335 -5.713672 11.006714 86 81 75
1.365042 -5.703695 11.143634 83 78 72
1.337368 -5.702703 11.290703 102 101 97
1.396888 -5.710424 11.366078 103 99 96
1.391732 -5.704948 11.456727 101 100 95
1.397141 -5.703772 11.558257 107 106 101
1.397902 -5.700564 11.659002 105 102 97
1.344452 -5.700452 11.715519 97 94 89
1.386772 -5.709544 11.851969 101 102 97
1.389776 -5.701545 11.954010 134 135 129
1.366550 -5.600363 -0.424342 55 47 34
1.337237 -5.671015 -0.307024 21 16 12
1.312059 -5.697264 -0.256646 23 19 8
1.307780 -5.647001 -0.162013 7 3 0
1.303114 -5.648321 -0.072703 22 20 21
1.325119 -5.686967 0.060161 28 24 21
1.309847 -5.697623 0.174680 27 24 15
1.303216 -5.669846 0.262738 20 17 12
1.316377 -5.671061 0.367984 21 18 13
1.303090 -5.676068 0.469860 27 24 17
1.315483 -5.677820 0.565190 29 26 19
1.303416 -5.680932 0.666372 29 26 19
1.315378 -5.682556 0.755046 29 26 19
1.304501 -5.683808 0.855551 29 26 19
1.316706 -5.683886 0.942935 28 25 18
1.305203 -5.687159 1.029994 28 25 18
1.327018 -5.659430 1.115698 29 25 22
1.315264 -5.666409 1.220500 23 22 18
1.306305 -5.669853 1.335313 17 16 12
1.326970 -5.673599 1.447593 16 15 10
1.318983 -5.675569 1.558580 16 15 10
1.309591 -5.679859 1.655816 17 16 12
1.301428 -5.682751 1.754412 19 16 11
1.320625 -5.686103 1.850983 17 14 9
1.312917 -5.688266 1.944581 17 16 12
1.303848 -5.692644 2.026495 15 14 9
1.323079 -5.694187 2.119041 16 15 11
1.315317 -5.696667 2.201326 17 16 11
1.301709 -5.699764 2.363327 20 19 15
1.303674 -5.677964 2.436999 25 21 18
1.308513 -5.688156 2.549526 19 16 14
1.394802 -5.692973 8.972590 87 77 79
1.380854 -5.692108 9.083923 116 105 109
1.361819 -5.692200 9.100807 122 113 116
1.391153 -5.678296 9.276526 55 49 49
1.393177 -5.679958 9.348936 52 46 46
1.350806 -5.699712 9.485789 121 119 122
1.378086 -5.697529 9.539665 137 131 133
1.393347 -5.697161 9.612369 150 141 146
1.396627 -5.693258 9.776103 151 142 147
1.384177 -5.689758 9.867516 194 189 193
1.392039 -5.686478 9.946245 117 116 124
1.379330 -5.682832 10.043028 29 24 30
1.395014 -5.681831 10.130867 27 22 28
1.384364 -5.678782 10.235003 24 22 25
1.377218 -5.649534 10.380577 21 19 22
1.370656 -5.635249 10.432619 23 19 20
1.394923 -5.614842 10.599357 37 33 32
1.373291 -5.613724 10.615021 33 32 30
1.392038 -5.663453 10.712852 37 33 31
1.390011 -5.664211 10.821857 107 104 98
1.300655 -5.655170 10.988895 104 100 91
1.355671 -5.648278 11.027247 104 97 89
1.397517 -5.629498 11.155558 120 117 112
1.392795 -5.621111 11.254097 118 114 111
1.382447 -5.610606 11.351125 96 95 91
1.394189 -5.600362 11.432023 105 105 100
1.350254 -5.666721 11.579456 108 103 97
1.309706 -5.665717 11.616366 106 101 95
1.383962 -5.698620 11.784741 99 96 91
1.398801 -5.693573 11.868912 107 104 99
1.395121 -5.688215 11.974791 124 123 118
1.390709 -5.682449 12.083057 124 124 114
1.389848 -5.678022 12.197996 101 100 95
1.399974 -5.670068 12.287594 92 91 87
1.381682 -5.670493 12.309061 89 88 84
1.394090 -5.663241 12.403716 95 94 89
1.385944 -5.655376 12.520913 110 111 105
1.378962 -5.647850 12.642924 109 108 103
1.392369 -5.640148 12.747183 108 107 102
1.385633 -5.632315 12.876602 116 115 111
1.343729 -5.632182 12.919577 124 120 134
1.389361 -5.651692 13.019524 97 94 87
1.341789 -5.648984 13.105971 99 96 89
1.386804 -5.518364 -0.512958 56 46 34
1.361369 -5.545775 -0.470881 56 46 34
1.360911 -5.543180 -0.357930 61 54 38
1.319658 -5.524652 -0.170814 67 60 44
1.350975 -5.599814 11.470345 123 122 117
1.307032 -5.598996 11.507977 119 114 108
1.314300 -5.421370 -0.187442 68 58 46
1.379294 -5.211866 -0.426577 61 55 41
1.352328 -5.207907 -0.378831 61 55 41
1.378842 -5.177476 -0.425278 62 56 42
1.351878 -5.173691 -0.377538 62 56 42
1.381999 -2.801239 1.597835 35 32 27
1.305521 -2.801482 1.618112 36 32 29
1.325118 -2.801353 1.769722 30 26 23
1.390461 -2.801520 1.800445 31 23 20
1.310152 -2.800084 2.283249 47 47 47
1.314159 -2.801107 3.861667 32 30 31
1.301484 -2.804771 3.988968 36 27 30
1.309855 -2.806026 4.070854 29 24 28
1.314299 -2.808964 4.186673 29 28 24
1.306507 -2.810965 4.256657 27 28 23
1.366013 -2.818944 4.353972 27 26 24
1.378482 -2.800479 8.889643 65 60 56
1.357356 -2.800809 8.907086 65 60 56
1.358105 -2.796407 1.232874 29 26 23
1.358927 -2.791426 1.398418 24 24 18
1.322210 -2.784644 1.476591 26 25 19
1.312805 -2.784272 1.563518 32 29 24
1.318502 -2.795188 1.685010 36 32 29
1.391238 -2.781274 1.794791 37 32 29
1.308237 -2.779268 1.893490 15 9 9
1.382860 -2.793664 1.997009 15 15 14
1.320738 -2.791723 2.084967 50 50 48
1.310532 -2.788130 2.158299 49 49 47
1.336280 -2.799603 2.282423 48 48 48
1.315940 -2.787271 2.368399 46 44 45
1.306310 -2.784752 2.443077 31 32 34
1.303389 -2.781303 2.579388 43 41 42
1.319149 -2.779004 2.655908 41 39 40
1.303193 -2.777324 2.796018 40 40 40
1.320543 -2.778406 2.875842 40 40 40
1.314436 -2.779858 2.947256 40 40 40
1.300175 -2.779023 3.072325 40 40 41
1.316747 -2.780348 3.143754 39 39 39
1.306632 -2.784418 3.271619 38 38 38
1.316910 -2.786904 3.393909 33 35 34
1.312110 -2.788788 3.451236 31 33 32
1.301776 -2.790819 3.556557 35 35 35
1.313028 -2.795078 3.667709 33 33 35
1.304689 -2.798767 3.766234 33 31 34
1.367758 -2.799745 3.873871 36 34 35
1.301210 -2.779145 3.976485 32 32 34
1.305005 -2.781020 4.087995 33 33 33
1.311011 -2.786073 4.198526 31 30 28
1.327978 -2.786689 4.201641 31 31 29
1.347883 -2.797840 8.803379 62 57 54
1.357601 -2.745648 8.935051 66 58 56
1.378127 -2.749281 9.014436 64 60 57
1.373069 -2.755152 9.111360 61 57 54
1.381210 -2.757279 9.216739 48 44 41
1.378210 -2.762836 9.321064 46 42 39
1.398131 -2.767695 9.411408 48 44 41
1.384017 -2.770981 9.545869 69 64 60
1.398544 -2.737378 9.617669 62 58 55
1.394740 -2.737556 9.718757 60 56 53
1.385434 -2.739489 9.820587 59 55 54
1.380505 -2.739963 9.927927 60 56 55
1.310774 -2.740240 10.091251 59 55 54
1.358387 -2.777741 10.116320 57 53 52
1.380046 -2.777064 10.209610 56 54 53
1.391964 -2.779796 10.300522 56 55 53
1.388119 -2.781073 10.414601 58 57 55
1.394811 -2.778926 10.539436 59 58 56
1.312107 -2.777980 10.611995 61 60 58
1.354865 -2.777751 10.703571 64 62 61
1.372624 -2.778967 10.814232 69 65 62
1.398902 -2.777688 10.934718 72 68 65
1.316436 -2.774891 11.016110 72 68 65
1.387962 -2.773717 11.104880 75 72 67
1.392336 -2.772161 11.257407 74 73 68
1.329979 -2.769171 11.323701 75 72 67
1.340986 -2.741714 11.401341 64 63 59
1.386411 -2.739000 11.510946 65 64 60
1.393033 -2.735839 11.668566 69 68 63
1.353599 -2.734988 11.712986 69 68 63
1.323227 -2.754994 11.801640 68 69 63
1.361815 -2.752856 11.913527 70 73 66
1.383187 -2.749890 12.052876 73 75 70
1.321243 -2.749716 12.115818 76 77 72
1.389301 -2.744837 12.224806 77 78 73
1.307510 -2.743503 12.313601 79 80 75
1.391486 -2.741177 12.400751 79 81 76
1.398076 -2.717146 12.512860 78 75 70
1.340492 -2.716251 12.603337 76 75 71
1.393467 -2.713171 12.703726 78 77 73
1.317329 -2.713289 12.815517 80 79 74
1.352862 -2.738044 12.910370 89 88 83
1.316725 -2.735182 13.010414 92 91 86
1.373436 -2.728814 13.123301 90 89 85
1.354907 -2.692128 2.193295 35 34 32
1.336372 -2.672173 2.298144 21 18 13
1.303401 -2.672533 2.316886 41 37 34
1.308540 -2.690604 3.297242 44 40 39
1.306325 -2.679996 3.351810 43 39 38
1.386376 -2.693721 12.598697 75 76 70
1.369827 -2.693012 12.624247 76 75 70
1.411104 -5.802076 3.377876 17 14 15
1.401271 -5.806954 3.409002 15 14 12
1.425546 -5.716108 -0.113324 21 18 11
1.431284 -5.702656 0.087067 24 23 20
1.428408 -5.716618 0.160095 23 23 15
1.447602 -5.708587 0.201560 25 22 17
1.407191 -5.707249 0.371844 33 30 25
1.424637 -5.710422 0.485984 38 30 27
1.498176 -5.715313 0.558618 40 33 27
1.417436 -5.705099 0.642783 37 34 27
1.403191 -5.718352 0.706622 34 33 29
1.426781 -5.718614 0.852612 33 32 28
1.416316 -5.718796 0.993325 32 31 27
1.402976 -5.711935 1.094916 30 27 22
1.405369 -5.720407 1.121915 31 31 29
1.426579 -5.721857 1.244633 25 24 22
1.418896 -5.718711 1.380645 21 20 18
1.408757 -5.719967 1.494258 19 18 16
1.457809 -5.722092 1.598748 19 18 16
1.428352 -5.721696 1.600810 17 16 14
1.419828 -5.720683 1.713615 20 20 15
1.411967 -5.719238 1.823473 21 20 16
1.402767 -5.720351 1.920103 18 17 15
1.422636 -5.719395 2.019756 20 19 15
1.414412 -5.719203 2.113494 19 18 16
1.407215 -5.717931 2.207341 20 19 15
1.400138 -5.701049 2.373275 18 17 13
1.417122 -5.701507 2.457145 19 15 13
1.408789 -5.703040 2.531130 16 15 11
1.400586 -5.704736 2.602059 18 14 11
1.408394 -5.707184 2.743286 18 17 13
1.402024 -5.706475 2.814727 19 18 16
1.408809 -5.709741 2.940298 17 16 12
1.402049 -5.710064 3.002374 19 16 11
1.409080 -5.712250 3.119835 16 15 10
1.416023 -5.713843 3.232168 14 13 9
1.403672 -5.713901 3.339163 14 13 10
1.494636 -5.715627 3.401786 15 14 12
1.480888 -5.715173 3.501302 13 13 11
1.406063 -5.715560 3.629011 11 11 11
1.412645 -5.716192 3.716674 11 11 9
1.452655 -5.718646 3.801580 17 13 14
1.401556 -5.719200 3.910034 14 10 9
1.405462 -5.715394 4.029077 15 11 10
1.495576 -5.705347 8.517660 8 2 2
1.498799 -5.709784 8.686504 10 2 0
1.496678 -5.710381 8.774323 10 1 2
1.499143 -5.713080 8.864184 8 3 0
1.495776 -5.716282 8.971945 3 2 0
1.493815 -5.717110 9.066743 3 2 0
1.497937 -5.717554 9.147972 11 7 6
1.477136 -5.721437 9.272833 19 13 15
1.491419 -5.700020 9.320683 63 55 52
1.488563 -5.701333 9.454776 63 55 53
1.479881 -5.701125 9.557333 137 128 133
1.497791 -5.714727 9.698408 143 136 143
1.493557 -5.714989 9.785991 149 139 145
1.490262 -5.715624 9.876749 140 131 135
1.481698 -5.714518 9.968104 147 138 139
1.488457 -5.712123 10.044643 126 121 125
1.498411 -5.700126 10.104880 115 107 105
1.494822 -5.730489 10.246762 103 94 99
1.499263 -5.729238 10.315509 26 24 25
1.493300 -5.729749 10.404227 18 17 22
1.498838 -5.735081 10.501206 17 15 18
1.462734 -5.704197 10.679690 21 17 18
1.423548 -5.700827 10.708574 40 36 33
1.437740 -5.702619 10.818774 28 24 21
1.474062 -5.700123 10.989419 85 81 72
1.499198 -5.701597 11.082467 86 81 75
1.486304 -5.729014 11.198484 81 78 71
1.473596 -5.700110 11.238759 98 95 90
1.491993 -5.710665 11.374795 113 109 105
1.489580 -5.705755 11.468412 102 101 96
1.488239 -5.701173 11.565409 103 104 98
1.451441 -5.700674 11.602382 107 106 101
1.491963 -5.719244 11.715129 102 101 96
1.492815 -5.709837 11.812951 96 93 88
1.488007 -5.702977 11.941728 102 101 96
1.475262 -5.607711 -0.527544 53 47 33
1.420926 -5.603563 -0.473654 56 48 35
1.407915 -5.633224 -0.304058 2 1 0
1.416914 -5.643015 -0.211397 7 6 2
1.426829 -5.649506 -0.108905 16 13 6
1.436736 -5.654940 -0.006409 21 14 6
1.410276 -5.656290 0.004031 22 16 7
1.404957 -5.694275 0.138908 23 22 18
1.422437 -5.698969 0.257272 28 25 20
1.415637 -5.669131 0.315011 16 13 8
1.401232 -5.672983 0.422124 24 21 16
1.412004 -5.674420 0.519526 26 23 16
1.422299 -5.676047 0.612597 26 23 16
1.409081 -5.678183 0.714434 29 26 19
1.419292 -5.679143 0.802951 29 24 18
1.416463 -5.682087 0.980551 30 25 19
1.436756 -5.649729 1.029110 34 26 24
1.422146 -5.657982 1.133215 29 25 22
1.408150 -5.665785 1.234398 27 24 19
1.427218 -5.669825 1.350409 24 21 16
1.414860 -5.675256 1.452058 19 15 12
1.404811 -5.677628 1.561535 20 15 12
1.422318 -5.682136 1.661781 18 17 13
1.412453 -5.684349 1.763098 18 16 12
1.401606 -5.688555 1.852824 19 16 11
1.420039 -5.689856 1.953408 18 15 10
1.410626 -5.691981 2.043542 20 15 12
1.401378 -5.694287 2.129602 19 15 12
1.418381 -5.696177 2.217525 20 16 13
1.434568 -5.698408 2.301145 19 18 14
1.421504 -5.682394 2.412900 21 21 19
1.400063 -5.691929 2.530324 25 22 17
1.417921 -5.694186 8.957400 80 70 69
1.423251 -5.693205 9.051633 108 98 97
1.487666 -5.676898 9.247452 56 48 46
1.489766 -5.678517 9.394163 64 55 56
1.493756 -5.680378 9.471656 80 73 71
1.457139 -5.699788 9.570705 139 133 135
1.491227 -5.698927 9.629354 144 135 140
1.496900 -5.694781 9.796299 165 156 161
1.486383 -5.691460 9.890006 161 155 167
1.493460 -5.687350 9.969374 165 164 170
1.483540 -5.684123 10.069045 29 27 30
1.474039 -5.681027 10.172246 28 23 29
1.429167 -5.679905 10.203653 28 23 27
1.477288 -5.643581 10.380414 22 20 23
1.480025 -5.612322 10.466517 22 17 21
1.484303 -5.600960 10.565881 25 23 24
1.499194 -5.660553 10.693744 42 38 37
1.489088 -5.657590 10.798069 27 23 22
1.475258 -5.658851 10.817844 30 26 27
1.496119 -5.653876 10.910130 26 22 21
1.420735 -5.644145 11.072591 102 95 88
1.474949 -5.621444 11.177439 114 110 101
1.496825 -5.607633 11.227255 126 125 120
1.435045 -5.600101 11.391799 100 100 96
1.414617 -5.600232 11.411911 100 101 96
1.494670 -5.695280 11.564405 104 103 98
1.491778 -5.698445 11.669079 108 108 100
1.494537 -5.695277 11.775190 106 101 96
1.491926 -5.689827 11.879813 105 102 95
1.485608 -5.682773 11.984104 108 107 102
1.483055 -5.677097 12.094816 199 196 187
1.464989 -5.677517 12.116019 222 218 207
1.481858 -5.671824 12.210121 104 104 96
1.494751 -5.664194 12.302652 97 94 89
1.482803 -5.654300 12.413447 90 91 85
1.499014 -5.647364 12.514443 101 100 95
1.491921 -5.638964 12.636554 111 110 105
1.491327 -5.632904 12.769623 114 114 106
1.449270 -5.632774 12.812777 111 111 103
1.480936 -5.650701 12.905818 111 110 105
1.478266 -5.651142 13.021676 123 120 115
1.468256 -5.526065 -0.604114 54 48 34
1.413533 -5.521596 -0.546555 55 49 35
1.496330 -5.599710 11.331463 118 117 112
1.437442 -5.431334 -0.605043 55 49 35
1.438466 -5.462514 -0.596410 56 48 35
1.463925 -5.301580 -0.632805 57 51 37
1.462736 -5.203473 -0.636772 58 52 38
1.461824 -5.138199 -0.640882 58 52 38
1.428414 -4.710906 -0.635875 62 56 40
1.428991 -4.644000 -0.622429 62 56 40
1.430296 -4.313744 -0.573849 66 59 43
1.429848 -4.215579 -0.569035 65 59 43
1.492558 -2.801455 1.292987 27 26 21
1.407677 -2.801559 1.592421 35 32 27
1.414115 -2.830801 1.678887 26 21 18
1.429898 -2.807560 1.797585 27 22 18
1.497160 -2.801361 1.867474 29 21 18
1.411236 -2.802811 3.975957 31 30 28
1.401296 -2.806467 4.059754 33 31 32
1.403288 -2.810724 4.180095 29 27 28
1.404317 -2.813463 4.288990 31 29 30
1.412586 -2.818780 4.366588 30 29 27
1.450154 -2.822929 4.446768 32 31 27
1.443244 -2.796998 1.295996 32 29 24
1.406792 -2.793460 1.387290 32 31 26
1.416531 -2.788224 1.452810 30 29 24
1.462112 -2.787861 1.599755 27 24 19
1.419797 -2.796298 1.662824 37 29 27
1.415957 -2.781695 1.789737 36 33 28
1.404334 -2.778513 1.865829 38 33 29
1.408372 -2.792299 1.989296 15 13 14
1.421913 -2.787465 2.058291 30 28 29
1.422642 -2.778337 2.194006 50 50 48
1.413840 -2.796935 2.276030 47 48 50
1.420937 -2.783551 2.371536 47 47 47
1.408759 -2.779802 2.442078 46 46 46
1.422136 -2.770822 2.583122 35 35 35
1.413843 -2.772636 2.665313 39 41 40
1.405608 -2.774027 2.743430 43 43 43
1.410638 -2.772300 2.885221 41 41 41
1.403600 -2.774771 2.959461 42 42 43
1.409560 -2.774787 3.093184 41 41 43
1.403079 -2.777414 3.161388 40 38 41
1.410688 -2.780250 3.291268 39 39 39
1.404318 -2.782400 3.352333 39 39 39
1.411873 -2.785457 3.471930 37 37 39
1.418135 -2.787043 3.581031 38 37 42
1.406982 -2.791849 3.687083 34 32 35
1.414875 -2.795965 3.791323 35 35 37
1.403491 -2.798836 3.882007 31 31 31
1.433662 -2.799902 3.934980 32 32 32
1.414047 -2.781262 4.066174 25 25 27
1.415721 -2.785814 4.177439 32 32 30
1.412816 -2.790274 4.218195 33 33 31
1.499797 -2.774520 8.862228 38 34 31
1.492293 -2.782698 8.900444 37 33 30
1.406964 -2.746311 9.000684 64 60 57
1.448039 -2.754738 9.165976 49 45 42
1.406265 -2.755616 9.200957 47 43 40
1.403532 -2.761190 9.305059 46 42 39
1.417352 -2.739702 9.405746 57 53 50
1.423112 -2.736955 9.503937 61 56 53
1.417975 -2.737700 9.600875 60 56 53
1.418531 -2.736575 9.703519 60 56 55
1.409458 -2.738533 9.805147 59 55 54
1.487191 -2.774203 9.919752 58 54 53
1.485507 -2.775213 10.021748 58 54 53
1.484996 -2.775865 10.127948 58 54 53
1.495697 -2.779523 10.215984 57 53 52
1.486193 -2.783187 10.324357 58 54 53
1.491528 -2.782162 10.445140 58 57 55
1.412746 -2.780042 10.519661 59 58 56
1.457706 -2.779762 10.609443 60 59 55
1.475027 -2.781773 10.716592 66 62 59
1.499483 -2.781808 10.832114 70 65 62
1.418390 -2.778733 10.913677 71 68 63
1.468232 -2.777800 11.018829 74 71 66
1.498898 -2.776084 11.149928 74 71 66
1.437011 -2.773094 11.215840 76 73 66
1.415839 -2.743531 11.316457 65 64 60
1.480619 -2.741773 11.401411 64 63 59
1.496042 -2.736284 11.561557 68 67 62
1.456719 -2.735432 11.605867 68 67 62
1.422153 -2.755271 11.701120 70 69 64
1.462829 -2.753140 11.810886 73 72 67
1.486426 -2.750179 11.947973 74 75 69
1.424483 -2.750006 12.010915 75 76 70
1.492091 -2.746229 12.114674 76 77 72
1.410442 -2.744896 12.203325 77 78 73
1.475183 -2.742493 12.310019 80 81 75
1.486549 -2.736003 12.499402 82 83 78
1.492500 -2.716433 12.538096 77 76 71
1.452861 -2.713814 12.612166 77 76 72
1.489858 -2.712287 12.733466 81 80 75
1.446568 -2.710861 12.805867 81 80 75
1.450206 -2.733161 12.922931 88 88 80
1.413261 -2.730339 13.024779 91 90 85
1.481303 -2.725110 13.112429 89 88 83
1.482833 -2.683109 2.198792 36 35 31
1.423161 -2.664964 2.279865 38 35 34
1.491585 -2.698059 3.296448 44 40 39
1.412967 -2.690314 3.341262 41 40 38
1.485751 -2.697705 12.446829 74 73 68
1.436531 -2.695565 12.522979 75 74 69
1.493888 -2.686313 12.671221 76 77 71
1.479584 -2.684501 12.700269 76 77 71
1.514718 -5.800563 3.331503 21 15 17
1.508655 -5.722248 0.342269 27 25 16
1.503798 -5.732112 0.591389 23 19 16
1.515479 -5.713925 0.681485 39 31 23
1.528912 -5.718941 0.775709 38 31 25
1.508402 -5.704684 0.842617 36 31 25
1.514014 -5.721382 0.979684 34 33 29
1.509383 -5.711309 1.043053 34 29 25
1.500791 -5.723159 1.108116 32 31 28
1.518759 -5.726844 1.222508 32 31 29
1.509423 -5.722587 1.363467 23 23 21
1.527954 -5.723564 1.478000 18 17 14
1.515724 -5.724814 1.587462 18 17 13
1.504527 -5.725084 1.696028 18 17 13
1.521913 -5.715316 1.776934 20 17 12
1.580097 -5.756314 1.862762 16 12 11
1.568390 -5.754686 1.960480 14 14 9
1.583364 -5.749474 2.078863 12 11 6
1.573559 -5.744717 2.180836 13 12 10
1.563664 -5.741187 2.275060 11 11 9
1.578413 -5.735329 2.384624 17 15 16
1.591315 -5.732519 2.480115 16 14 15
1.581942 -5.728763 2.565830 21 17 18
1.594606 -5.725526 2.656861 17 15 16
1.584497 -5.724259 2.729018 14 13 13
1.596398 -5.721867 2.812021 17 15 18
1.572087 -5.709357 2.900364 17 18 13
1.510056 -5.710247 3.018640 17 17 15
1.514602 -5.711454 3.138655 24 20 19
1.568255 -5.712838 3.202069 17 16 14
1.530304 -5.714460 3.304225 21 17 18
1.514555 -5.715120 3.406322 17 16 12
1.518212 -5.716724 3.503544 17 15 16
1.540773 -5.717447 3.600982 15 14 12
1.501285 -5.717496 3.728506 12 11 9
1.505335 -5.718219 3.811486 15 11 10
1.501939 -5.720430 3.924531 14 10 11
1.522178 -5.721191 4.000918 15 11 12
1.596628 -5.700749 8.421777 10 1 2
1.597575 -5.704952 8.519943 6 0 0
1.598023 -5.707105 8.694923 8 2 2
1.591132 -5.707068 8.710284 6 2 1
1.596236 -5.711430 8.894483 6 2 1
1.593867 -5.711503 8.990174 6 2 1
1.563236 -5.715061 9.098908 6 1 2
1.596348 -5.714365 9.199434 13 7 6
1.544021 -5.718498 9.299120 19 13 15
1.597687 -5.701639 9.343893 67 59 57
1.586894 -5.704181 9.497477 56 48 46
1.578042 -5.702479 9.572800 109 107 112
1.592953 -5.700855 9.647077 140 131 134
1.568398 -5.715357 9.725595 142 132 140
1.584006 -5.716947 9.892948 140 131 136
1.582553 -5.717795 9.988748 138 128 127
1.588520 -5.714603 10.065965 167 161 163
1.542322 -5.700387 10.145810 118 109 110
1.591977 -5.727455 10.288419 114 105 108
1.592398 -5.723973 10.357179 28 26 27
1.588767 -5.724885 10.449343 19 17 22
1.595582 -5.730046 10.549443 19 15 19
1.596665 -5.732998 10.650023 18 14 15
1.596780 -5.706110 10.727585 19 15 16
1.594902 -5.740688 10.887724 33 29 29
1.597619 -5.735327 10.982085 97 90 82
1.504730 -5.700131 11.060327 84 81 74
1.527195 -5.713401 11.168789 85 80 74
1.596424 -5.717684 11.294184 103 100 95
1.594787 -5.712604 11.386886 107 104 99
1.582111 -5.703055 11.473880 109 106 101
1.541938 -5.701279 11.508601 102 100 95
1.595707 -5.717818 11.670184 99 100 94
1.589634 -5.709930 11.795212 106 101 95
1.573308 -5.708191 11.814700 102 97 91
1.595585 -5.701776 11.900118 97 94 89
1.530204 -5.656424 -0.203321 14 12 7
1.505942 -5.649680 -0.158476 16 13 8
1.514824 -5.654087 -0.050797 18 16 9
1.524665 -5.654405 0.068988 18 16 9
1.507024 -5.661262 0.173341 16 16 8
1.516357 -5.662390 0.280762 21 18 11
1.524198 -5.667037 0.370629 18 15 8
1.508602 -5.669846 0.478418 21 18 13
1.517217 -5.671424 0.572444 24 21 15
1.503275 -5.671064 0.683893 29 26 21
1.511475 -5.673174 0.768954 28 25 20
1.520077 -5.673140 0.858386 30 25 19
1.505628 -5.676293 0.947119 29 24 18
1.513759 -5.677105 1.027617 28 23 17
1.515249 -5.660224 1.134733 30 26 23
1.502309 -5.663391 1.255837 28 24 21
1.518992 -5.668507 1.367160 27 23 20
1.504937 -5.674004 1.468422 22 19 12
1.521503 -5.677842 1.575664 22 17 14
1.508405 -5.682112 1.673087 21 16 13
1.524336 -5.685649 1.773015 22 14 11
1.512591 -5.687989 1.869795 19 15 12
1.501363 -5.690088 1.963624 19 15 12
1.516863 -5.692798 2.055278 17 13 10
1.506368 -5.694008 2.145203 20 14 14
1.521576 -5.695989 2.232716 22 14 12
1.511012 -5.697704 2.314396 17 16 14
1.505038 -5.689613 2.456898 24 20 19
1.515713 -5.696282 2.507302 25 21 20
1.587080 -5.675506 9.289897 41 35 37
1.595046 -5.678160 9.366297 65 56 56
1.595529 -5.678254 9.443006 82 74 72
1.585251 -5.680086 9.538755 93 85 83
1.569633 -5.699564 9.660920 144 135 140
1.581505 -5.696886 9.736382 175 169 171
1.577165 -5.695143 9.831508 167 158 163
1.589301 -5.692238 9.911915 186 180 191
1.507687 -5.685322 10.054528 37 37 39
1.580747 -5.643899 10.191060 28 23 27
1.598115 -5.643062 10.279613 26 21 25
1.583921 -5.632073 10.354401 23 21 24
1.584653 -5.619100 10.410714 22 20 23
1.538937 -5.600611 10.512093 19 17 18
1.599662 -5.672399 10.641737 19 14 18
1.597510 -5.653262 10.777651 32 30 31
1.558747 -5.651876 10.811316 27 26 26
1.598309 -5.657042 10.916805 34 30 27
1.507987 -5.658765 11.016768 101 96 90
1.553492 -5.686748 11.100948 85 78 72
1.520697 -5.678611 11.206835 108 105 100
1.516603 -5.678123 11.333603 113 112 107
1.589837 -5.699785 11.490143 99 100 94
1.583592 -5.698975 11.573751 98 97 93
1.584400 -5.694498 11.675938 95 95 90
1.589169 -5.691428 11.784322 112 109 104
1.583097 -5.683985 11.886767 108 105 100
1.582453 -5.678514 11.996791 114 111 106
1.597857 -5.671567 12.086401 111 108 102
1.593600 -5.664291 12.199057 213 211 199
1.572047 -5.663595 12.218145 230 225 210
1.585615 -5.655434 12.311407 101 98 91
1.578290 -5.646674 12.427611 94 93 88
1.594448 -5.638841 12.528638 96 95 88
1.592546 -5.631659 12.657036 108 108 100
1.550387 -5.631531 12.700310 113 113 105
1.596509 -5.647039 12.872231 115 112 105
1.566859 -5.646062 12.921819 102 99 94
1.565460 -5.648480 13.017819 112 109 104
1.585901 -5.599574 10.439811 23 20 23
1.570469 -5.553753 10.501362 22 20 21
1.516758 -5.599579 11.311351 121 120 115
1.516331 -2.801971 1.285847 25 24 20
1.549831 -2.801510 1.360791 24 23 19
1.511094 -2.804958 1.577927 33 30 23
1.515245 -2.848976 1.682374 25 18 12
1.508414 -2.821546 1.797821 29 21 18
1.574685 -2.800959 1.884371 20 19 11
1.503885 -2.805718 4.087143 31 31 33
1.509000 -2.809971 4.172277 22 22 22
1.507060 -2.814133 4.285574 27 29 28
1.505536 -2.818456 4.391775 31 31 31
1.510396 -2.822440 4.462496 33 33 33
1.502134 -2.798183 1.367426 25 24 19
1.511581 -2.795384 1.440802 22 21 17
1.508255 -2.791829 1.594968 25 22 18
1.554159 -2.790058 1.695715 32 29 24
1.514411 -2.783396 1.769675 37 29 27
1.534070 -2.773447 1.896157 36 30 26
1.513366 -2.791405 1.972951 34 33 29
1.560832 -2.778695 2.096111 17 17 15
1.578936 -2.786625 2.160986 19 18 14
1.515496 -2.790112 2.257044 29 29 29
1.525564 -2.778906 2.371674 47 47 47
1.511566 -2.774844 2.441105 48 48 48
1.519956 -2.765739 2.597288 42 42 42
1.509063 -2.766255 2.674838 54 54 54
1.522305 -2.765690 2.753797 43 43 43
1.511358 -2.765547 2.824177 43 41 44
1.516757 -2.770485 2.981178 44 42 43
1.506852 -2.770972 3.046638 43 41 42
1.511225 -2.773926 3.183989 42 42 42
1.502985 -2.776226 3.248729 41 41 41
1.507350 -2.779009 3.373771 41 39 40
1.512206 -2.782906 3.494775 40 38 39
1.503976 -2.783895 3.547256 39 37 38
1.508752 -2.787532 3.657991 36 36 36
1.512549 -2.789767 3.759324 38 36 39
1.516730 -2.792883 3.857632 35 35 35
1.514948 -2.799267 3.997555 35 35 36
1.532851 -2.799719 4.003648 34 34 32
1.500111 -2.787842 4.191015 49 50 45
1.511607 -2.790992 4.230776 35 34 32
1.595604 -2.796136 8.544060 37 33 30
1.572920 -2.794051 8.604356 37 33 30
1.598624 -2.787712 8.783060 37 33 32
1.522740 -2.785733 8.841761 36 32 31
1.536924 -2.781661 8.901776 37 33 32
1.516223 -2.740774 9.061250 57 53 52
1.559720 -2.738841 9.117569 60 52 50
1.563735 -2.737418 9.206658 56 52 49
1.538872 -2.738829 9.311367 46 44 45
1.547705 -2.770012 9.412471 45 41 40
1.519788 -2.773735 9.510049 56 52 49
1.530446 -2.770957 9.603271 59 55 52
1.541506 -2.768074 9.700035 63 55 53
1.517884 -2.770098 9.809591 58 54 51
1.506915 -2.774151 9.903678 60 54 54
1.505571 -2.775160 10.005397 58 54 53
1.505416 -2.775811 10.111306 58 54 53
1.591624 -2.782909 10.238434 58 54 53
1.507279 -2.783132 10.307172 59 55 54
1.531747 -2.782928 10.408494 57 56 54
1.556521 -2.782925 10.513437 59 58 56
1.598371 -2.784804 10.600596 61 60 56
1.599369 -2.785929 10.730077 63 62 58
1.518816 -2.782853 10.811200 68 64 61
1.571256 -2.781823 10.914235 72 69 64
1.581777 -2.779808 11.063041 74 71 66
1.539982 -2.778079 11.106129 75 70 66
1.587220 -2.779433 11.214698 75 72 67
1.501973 -2.775800 11.303515 75 72 67
1.595676 -2.737852 11.452274 66 65 61
1.538467 -2.736013 11.519789 68 65 60
1.524211 -2.754386 11.603102 68 67 62
1.563843 -2.753423 11.708244 71 70 65
1.592718 -2.749351 11.845654 73 72 67
1.527722 -2.750295 11.906012 74 73 68
1.576589 -2.746466 12.028815 75 76 70
1.599029 -2.745004 12.172804 80 79 74
