ply
format ascii 1.0
element vertex 1174
property float x
property float y
property float z
property uchar red
property uchar green
property uchar blue
end_header
6.304969 -0.404278 -27.600726 207 194 185
6.363365 -0.400059 -27.566879 176 163 144
6.371710 -0.400454 -27.477135 162 153 138
6.304145 -0.408743 -15.555065 118 132 97
6.301236 -0.373697 -28.203550 194 191 141
6.311943 -0.380418 -28.168968 219 214 187
6.344018 -0.378992 -28.004619 211 206 200
6.374513 -0.385408 -27.907400 202 189 183
6.319416 -0.393554 -27.800977 193 179 168
6.367037 -0.395775 -27.703333 183 167 152
6.397876 -0.395722 -27.624189 173 160 141
6.326222 -0.300382 -27.526813 168 157 139
6.393562 -0.302371 -27.491936 161 149 133
6.305625 -0.308753 -15.537202 124 135 101
6.375122 -0.303114 -15.497060 198 218 167
6.361310 -0.275027 -27.541593 204 197 181
6.356893 -0.201279 -27.486495 180 169 149
6.301903 -0.254152 -15.526581 128 140 104
6.387678 -0.209809 -15.495231 172 199 154
6.393556 -0.210245 -14.901097 90 104 78
6.372724 -0.201427 -14.802504 31 39 26
6.307104 -0.207436 -14.779037 19 27 16
6.361031 -0.100377 -27.541920 178 167 147
6.377633 -0.113447 -27.496147 185 174 152
6.302207 -0.106388 -15.516263 101 118 76
6.390362 -0.107878 -15.490572 204 216 168
6.395440 -0.144582 -14.800006 31 39 26
6.304574 -0.104238 -14.775183 21 27 17
6.371254 -0.000449 -27.612823 132 129 122
6.351521 -0.012483 -27.501289 157 149 136
6.394540 -0.011712 -27.478475 187 176 156
6.340064 -0.052781 -16.317766 120 136 123
6.300165 -0.011546 -15.518548 102 119 77
6.374369 -0.008881 -15.497193 195 212 170
6.306280 -0.008546 -14.780234 12 17 10
6.354271 0.062273 -28.004629 153 146 138
6.309033 0.073767 -27.913151 157 154 145
6.336884 0.069389 -27.803159 134 130 121
6.313249 0.083142 -27.706843 151 151 141
6.304584 0.098499 -27.608968 146 143 134
6.344402 0.097156 -27.533955 212 206 194
6.380959 0.097212 -27.453272 201 190 170
6.362980 0.056306 -27.303327 192 179 160
6.385063 0.057089 -27.293738 192 179 160
6.302519 0.099624 -16.020396 156 162 148
6.349868 0.098905 -15.948155 155 164 147
6.393546 0.098870 -15.871409 147 158 141
6.310736 0.096974 -15.520539 100 117 75
6.379501 0.096134 -15.488470 201 218 174
6.379716 0.092487 -15.391570 59 72 52
6.306401 0.098184 -14.770763 5 11 1
6.371091 0.120824 -27.705205 151 147 138
6.399310 0.120872 -27.676331 196 193 188
6.326452 0.120374 -27.504945 202 195 177
6.358885 0.131356 -27.426789 198 198 188
6.393339 0.177317 -27.399418 58 73 66
6.302552 0.127846 -16.062567 157 166 149
6.306877 0.136953 -15.901068 149 160 143
6.332469 0.170301 -15.859519 150 161 145
6.311811 0.194553 -15.518058 102 119 75
6.377645 0.190282 -15.491136 209 228 183
6.388533 0.102353 -15.387847 62 75 57
6.302751 0.196286 -14.768198 6 12 2
6.300350 0.298048 -29.545763 12 7 3
6.300681 0.292315 -15.514931 101 120 75
6.360199 0.295623 -15.499380 180 199 154
6.301472 0.259385 -14.776326 3 11 0
6.302198 0.399029 -29.551759 19 14 10
6.305909 0.391965 -15.505903 101 120 74
6.360805 0.393148 -15.497933 135 161 123
6.303422 0.397426 -14.784281 7 13 3
6.314035 0.499619 -29.570806 15 21 7
6.306597 0.492452 -15.503906 102 119 74
6.347167 0.491959 -15.499492 99 116 72
6.398685 0.484955 -14.868517 68 83 44
6.317186 0.499691 -14.783804 19 25 11
6.315224 0.598721 -29.575873 58 60 57
6.325326 0.582625 -29.499805 129 151 148
6.308218 0.582451 -15.500558 102 119 74
6.395855 0.599516 -15.479760 250 255 224
6.320012 0.597251 -15.311317 125 150 92
6.302358 0.596324 -15.285095 173 205 158
6.343822 0.516212 -14.876621 217 229 193
6.353584 0.599475 -14.773674 28 35 19
6.303841 0.699513 -29.582334 103 102 98
6.335432 0.664988 -29.481687 128 154 153
6.307634 0.696589 -15.500404 108 124 75
6.394472 0.699304 -15.481771 208 225 181
6.354096 0.697757 -15.304803 150 179 125
6.316764 0.697657 -15.269649 177 209 162
6.390462 0.694478 -14.834741 125 142 108
6.364900 0.699424 -14.758736 4 6 1
6.397586 0.698899 -14.683390 20 35 6
6.300917 0.742733 -29.577783 115 116 113
6.327528 0.799751 -15.508630 108 121 75
6.372750 0.793283 -15.496847 245 254 211
6.381835 0.798637 -15.304770 127 147 94
6.335819 0.799193 -15.264116 187 212 170
6.393745 0.792534 -14.876575 81 95 64
6.382651 0.798613 -14.749140 3 5 2
6.397027 0.781137 -14.670439 45 54 27
6.303404 0.899030 -29.573504 100 93 83
6.367786 0.898258 -15.504517 225 240 199
6.384153 0.894876 -15.498182 224 239 198
6.323871 0.897224 -15.304051 234 246 210
6.302107 0.897736 -15.281596 233 245 209
6.304524 0.851880 -15.116296 105 115 80
6.357791 0.889077 -15.010278 57 63 39
6.377068 0.870182 -14.977098 75 84 58
6.387167 0.890220 -14.880660 86 103 64
6.306763 0.864627 -14.721405 0 2 0
6.390274 0.838070 -14.606784 31 33 22
6.364071 0.896536 -14.507573 31 33 20
6.315924 0.894709 -14.400668 39 38 17
6.300945 0.899562 -14.364713 50 50 16
6.300829 0.919707 -29.574074 100 93 83
6.379937 0.984869 -15.746919 88 101 83
6.330472 0.997010 -15.502583 110 123 80
6.300542 0.998736 -15.428627 132 152 93
6.393621 0.997942 -15.325300 143 158 103
6.304628 0.994684 -15.262271 105 120 79
6.300861 0.958298 -15.108950 74 82 51
6.318235 0.928418 -15.078393 71 79 50
6.362912 0.929920 -14.907725 61 78 40
6.396573 0.953097 -14.867233 78 95 56
6.361883 0.920312 -14.799938 70 84 59
6.367542 0.994304 -14.507820 32 32 20
6.309524 0.993820 -14.400938 31 33 20
6.300722 0.992342 -14.384574 32 32 22
6.321165 1.022923 -15.764191 92 107 88
6.328302 1.054191 -15.633869 85 96 79
6.362807 1.099489 -15.511854 108 123 80
6.311586 1.098224 -15.410785 132 152 93
6.375249 1.097966 -15.304385 132 144 98
6.304475 1.097058 -15.268667 111 128 83
6.304195 1.098165 -15.110469 61 66 42
6.361845 1.094230 -14.902980 100 118 80
6.393217 1.094573 -14.831184 104 119 88
6.365331 1.093294 -14.501949 32 34 23
6.311590 1.092537 -14.402465 31 33 20
6.302939 1.099886 -14.386072 30 32 21
6.335649 1.180455 -15.809614 172 184 172
6.393122 1.179623 -15.788571 173 185 173
6.372882 1.199032 -15.647329 165 186 174
6.377371 1.166780 -15.508599 125 140 99
6.389640 1.161831 -15.407993 110 125 84
6.355583 1.113327 -15.300731 157 169 133
6.341097 1.152659 -15.206133 212 222 185
6.388677 1.148223 -15.101057 120 136 91
6.381992 1.189668 -15.003116 117 133 86
6.391698 1.198771 -14.969303 101 113 68
6.371034 1.191337 -14.845552 98 113 84
6.394115 1.197166 -14.779171 82 90 77
6.366042 1.195895 -14.507540 33 33 21
6.312724 1.193402 -14.405643 30 32 21
6.303747 1.191611 -14.389115 30 32 21
6.309468 1.264465 -15.845597 178 190 180
6.331726 1.239281 -15.705341 182 202 191
6.398193 1.209065 -15.638980 180 202 190
6.381993 1.292299 -15.203408 134 147 122
6.369511 1.272040 -15.103668 141 157 112
6.335931 1.284226 -15.066854 146 152 121
6.375668 1.231846 -14.997775 109 117 74
6.374132 1.225946 -14.898188 112 123 91
6.359215 1.224189 -14.794203 82 90 77
6.361223 1.290610 -14.505831 31 31 21
6.308670 1.295494 -14.401682 28 30 17
6.300278 1.286390 -14.319776 18 20 9
6.310893 1.281272 -14.292973 19 21 10
6.339641 1.377530 -15.643960 148 171 161
6.340160 1.399775 -15.507931 151 163 117
6.379041 1.396243 -15.498413 165 176 134
6.381540 1.321587 -15.307785 163 176 132
6.311528 1.393629 -15.217964 132 148 109
6.302529 1.378306 -15.127459 110 117 85
6.327845 1.334778 -15.082933 103 109 78
6.367464 1.379117 -14.915587 105 118 94
6.386415 1.333481 -14.894501 106 119 95
6.383751 1.352918 -14.785245 123 136 118
6.357234 1.395601 -14.503006 28 30 19
6.310534 1.398670 -14.403656 25 27 16
6.301904 1.396005 -14.386102 24 26 15
6.301129 1.320808 -14.245193 16 19 10
6.309486 1.402274 -15.651162 146 169 159
6.379211 1.494305 -15.505951 221 232 198
6.397424 1.495306 -15.491549 243 254 220
6.304561 1.467442 -15.396364 223 244 205
6.302342 1.407167 -15.285285 202 217 178
6.360539 1.450622 -14.500537 26 26 16
6.319291 1.443351 -14.407292 23 25 14
6.302025 1.437835 -14.372218 23 25 14
6.312982 1.511444 -15.838787 106 117 109
6.303161 1.565516 -15.640855 174 197 189
6.393590 1.598131 -15.508045 255 255 255
6.395802 1.533843 -15.498121 246 255 228
6.369567 1.697167 -15.518316 223 234 192
6.305737 1.658277 -15.411946 197 219 183
6.368588 1.711005 -15.521434 222 234 196
6.351682 1.799461 -15.490251 102 119 85
6.303538 1.848347 -15.493251 118 137 105
6.452471 -0.503929 -28.245386 66 66 32
6.403180 -0.501878 -28.165531 80 78 29
6.490122 -0.400674 -28.224138 78 77 31
6.400824 -0.403066 -28.164655 80 78 29
6.472012 -0.406695 -28.008111 244 240 237
6.442752 -0.408375 -27.909360 204 195 188
6.415706 -0.400380 -27.800371 217 211 211
6.491369 -0.400710 -27.728630 213 205 202
6.424335 -0.414177 -27.603309 211 201 192
6.499895 -0.401807 -27.524822 186 168 148
6.491582 -0.401108 -27.483883 141 128 111
6.412767 -0.367041 -28.207403 225 226 161
6.461322 -0.382753 -28.111252 66 67 35
6.460055 -0.386398 -28.097534 84 87 41
6.473004 -0.382812 -27.905229 198 189 182
6.407467 -0.391699 -27.806978 194 182 170
6.470438 -0.393025 -27.704958 182 166 150
6.441398 -0.394117 -27.602767 175 162 143
6.438935 -0.305884 -27.506166 173 160 143
6.489785 -0.303668 -27.484593 175 162 143
6.489179 -0.207752 -27.501331 181 168 149
6.489402 -0.205937 -27.465224 182 171 151
6.406960 -0.203850 -15.482431 171 200 154
6.490211 -0.205849 -15.396186 189 207 165
6.408918 -0.203610 -14.757430 19 25 15
6.454182 -0.103086 -27.587843 173 166 156
6.482097 -0.105606 -27.478291 187 174 155
6.410163 -0.102740 -15.476992 218 227 180
6.489204 -0.106846 -15.398966 179 197 155
6.415526 -0.106374 -14.800419 30 38 23
6.404667 -0.106758 -14.759360 20 26 16
6.412068 -0.063055 -27.503312 182 171 151
6.489156 -0.009047 -27.436709 190 179 159
6.455833 -0.000140 -27.399630 189 176 157
6.435601 -0.050942 -16.407555 110 127 111
6.458063 -0.042632 -16.307795 122 138 125
6.403832 -0.045039 -16.112459 147 153 139
6.415688 -0.000268 -15.467709 197 215 173
6.488819 -0.097864 -15.399585 179 197 155
6.464964 -0.021159 -14.800437 31 38 22
6.402868 -0.007054 -14.755555 30 34 20
6.415871 0.047173 -28.005529 154 147 139
6.427469 0.042487 -27.917004 158 154 145
6.445885 0.037140 -27.809101 160 154 142
6.407615 0.048650 -27.713729 159 155 144
6.424397 0.043038 -27.600716 181 177 165
6.401584 0.078985 -27.520482 223 216 200
6.498725 0.061120 -27.453457 201 193 174
6.491883 0.098278 -27.398402 199 188 168
6.487862 0.060280 -27.243702 191 178 159
6.409613 0.089070 -16.038420 178 180 166
6.419595 0.071320 -15.902294 153 162 145
6.432387 0.095285 -15.847724 146 157 140
6.418206 0.091781 -15.463415 197 215 173
6.418660 0.089015 -15.379327 66 79 59
6.403963 0.094797 -14.745079 33 39 25
6.405915 0.104767 -27.712137 152 148 139
6.471822 0.121174 -27.604903 183 179 167
6.453073 0.152436 -27.511339 204 198 184
6.492453 0.168403 -27.411623 252 252 244
6.494665 0.115345 -27.380477 198 187 167
6.407539 0.139834 -15.834751 147 158 141
6.414284 0.194045 -15.469760 201 222 179
6.499161 0.171660 -15.388469 170 196 157
6.469770 0.131046 -14.800213 34 42 21
6.403669 0.197082 -14.737689 33 39 27
6.489365 0.266140 -27.435990 188 194 190
6.411066 0.298284 -15.474937 202 224 178
6.499795 0.246303 -15.386528 173 199 160
6.408592 0.257529 -14.732845 31 37 25
6.409949 0.393623 -15.476651 131 161 125
6.499898 0.340439 -15.384682 153 183 147
6.423869 0.394080 -14.842618 68 83 44
6.404618 0.397338 -14.778262 29 41 21
6.441961 0.499615 -15.462360 148 170 134
6.490862 0.494040 -15.389635 142 167 128
6.468332 0.494278 -14.805485 49 56 28
6.408175 0.495534 -14.776888 50 59 38
6.411000 0.598391 -15.474627 238 247 205
6.489752 0.591652 -15.388774 161 187 148
6.467014 0.592581 -14.812672 54 59 27
6.447736 0.599382 -14.765668 57 67 43
6.474878 0.699600 -15.446165 212 230 190
6.480510 0.692255 -15.394894 170 196 157
6.472440 0.699401 -14.809018 64 68 33
6.482124 0.698599 -14.725072 2 4 0
6.409575 0.697525 -14.685153 19 34 5
6.466714 0.799908 -15.460523 222 240 202
6.475542 0.713363 -15.398798 170 196 157
6.401348 0.799123 -15.261283 94 107 77
6.447267 0.791618 -14.855771 76 83 53
6.482481 0.798036 -14.735897 4 4 2
6.443049 0.799436 -14.677623 58 63 38
6.480780 0.896151 -15.456705 215 233 195
6.410906 0.899393 -15.347872 143 156 100
6.404172 0.898175 -15.273492 120 135 92
6.417858 0.832501 -14.907004 77 86 55
6.427468 0.818768 -14.890244 77 86 55
6.467606 0.894452 -14.703763 31 31 19
6.412402 0.895598 -14.601930 32 34 21
6.402791 0.894587 -14.586068 32 34 21
6.402779 0.997529 -15.508161 236 251 217
6.473498 0.999825 -15.469807 162 184 145
6.444140 0.998943 -15.330585 148 161 115
6.403770 0.990236 -15.280781 126 147 95
6.451224 0.963735 -14.802503 68 82 49
6.470599 0.994986 -14.707801 32 32 22
6.415802 0.994605 -14.603490 33 33 21
6.402698 0.991883 -14.576674 32 34 21
6.412572 1.097490 -15.615685 102 115 98
6.434911 1.097446 -15.516144 131 146 107
6.479233 1.091310 -15.480788 110 124 88
6.472742 1.098910 -15.322132 133 145 105
6.406728 1.098588 -15.247535 125 143 91
6.474141 1.094691 -14.809845 63 67 44
6.470017 1.095052 -14.700508 34 34 22
6.419304 1.094739 -14.604939 32 34 21
6.401223 1.091097 -14.570057 32 34 22
6.409701 1.190722 -15.732024 103 121 107
6.481213 1.192259 -15.606406 180 198 184
6.407507 1.169608 -15.500229 132 148 106
6.403726 1.157862 -15.405380 107 122 81
6.473018 1.116026 -15.301232 130 143 99
6.492690 1.162364 -15.200807 123 139 92
6.441164 1.196449 -15.104539 126 144 94
6.404864 1.195707 -15.056159 124 142 90
6.400025 1.196588 -14.991567 116 138 91
6.479278 1.119459 -14.802564 68 73 46
6.471927 1.199392 -14.707311 36 36 24
6.416167 1.197147 -14.602127 34 34 22
6.402347 1.194254 -14.576075 33 35 22
6.472534 1.274964 -15.802890 170 180 172
6.459617 1.220346 -15.781259 26 32 22
6.483904 1.279559 -15.635098 53 68 49
6.489736 1.295463 -15.302370 121 132 90
6.471780 1.288877 -15.296235 106 119 73
6.405664 1.268564 -15.135776 161 174 131
6.403107 1.244491 -15.080987 132 148 103
6.430458 1.280575 -14.908660 123 132 101
6.449822 1.294017 -14.876974 161 170 139
6.462223 1.295960 -14.700407 36 36 24
6.410925 1.293598 -14.602831 34 34 22
6.401907 1.291178 -14.584712 31 33 20
6.422202 1.318706 -15.623574 154 176 164
6.493716 1.398105 -15.438344 242 252 218
6.461878 1.332464 -15.364700 129 140 98
6.459154 1.391199 -15.222385 149 160 117
6.497947 1.396017 -15.181031 165 177 131
6.426853 1.301016 -15.078899 55 67 57
6.441219 1.321793 -14.892764 176 184 154
6.463940 1.393907 -14.706660 35 35 23
6.406179 1.391086 -14.602296 29 31 20
6.402416 1.398745 -14.592311 31 31 21
6.454943 1.492324 -15.600764 175 198 190
6.474568 1.498231 -15.443209 252 255 236
6.484792 1.488511 -15.331733 196 212 173
6.451936 1.441904 -15.232787 157 169 123
6.496544 1.408070 -15.183061 169 181 135
6.458381 1.403834 -14.700502 34 34 22
6.406670 1.430359 -14.604517 30 30 20
6.404250 1.436304 -14.591660 30 30 20
6.491748 1.593092 -15.437107 255 255 255
6.498541 1.592901 -15.348133 192 214 175
6.400268 1.677706 -15.500494 255 255 251
6.431363 1.669575 -15.481332 255 255 255
6.487387 1.689896 -15.378242 218 236 198
6.435991 1.756865 -15.424242 205 225 190
6.488325 1.712284 -15.377371 214 234 199
6.535220 -0.500873 -28.240318 74 75 30
6.534496 -0.502281 -28.153846 79 79 29
6.512298 -0.400851 -28.208091 78 77 29
6.588692 -0.402367 -28.100444 200 196 115
6.589008 -0.400083 -28.007363 221 219 220
6.535820 -0.409243 -27.954192 255 254 250
6.505417 -0.400092 -27.805333 227 219 217
6.541209 -0.402122 -27.700253 213 203 201
6.595898 -0.400455 -27.608297 205 192 184
6.529510 -0.400306 -27.515365 187 169 149
6.519639 -0.400135 -27.475875 143 130 111
6.500230 -0.391484 -28.203459 78 77 29
6.514883 -0.387585 -28.107657 100 100 50
6.516456 -0.376474 -28.000286 245 241 240
6.564170 -0.381447 -27.901086 201 191 181
6.505962 -0.389323 -27.806062 195 181 170
6.567518 -0.391075 -27.705125 184 168 152
6.549179 -0.389764 -27.609988 183 166 148
6.508429 -0.326890 -27.583207 204 203 199
6.518788 -0.306950 -27.449387 176 163 146
6.562910 -0.234329 -27.621478 219 211 201
6.522432 -0.201239 -27.501194 182 170 148
6.541458 -0.201092 -27.457196 181 172 155
6.514184 -0.208258 -15.412035 153 170 136
6.552399 -0.206554 -15.399446 105 120 89
6.570150 -0.152341 -27.619889 173 168 159
6.570914 -0.110531 -27.552685 181 169 147
6.534212 -0.101582 -27.470156 187 176 156
6.502666 -0.107382 -15.414148 206 223 178
6.534325 -0.108356 -15.395687 114 131 97
6.502207 -0.106586 -14.746371 47 59 39
6.548992 -0.094382 -27.581693 178 174 165
6.550502 -0.008068 -27.403137 189 178 158
6.590472 -0.007482 -27.380814 189 178 158
6.561873 -0.093053 -17.010459 163 160 151
6.501478 -0.050538 -16.426598 116 137 118
6.511218 -0.043367 -16.312232 120 136 123
6.506941 -0.000804 -15.407227 196 214 174
6.521854 -0.007302 -15.399787 168 185 153
6.501155 -0.000485 -14.755402 66 81 50
6.581931 0.022533 -28.008119 151 147 138
6.504429 0.028032 -27.901885 162 155 145
6.511716 0.022757 -27.812733 162 156 144
6.503620 0.014691 -27.702215 172 166 152
6.500807 0.010695 -27.645860 176 169 159
6.533233 0.025793 -27.516003 176 170 158
6.565692 0.063324 -27.403577 199 191 172
6.544194 0.097706 -27.361486 196 185 167
6.565934 0.062492 -27.203188 191 178 159
6.585565 0.063074 -27.193312 191 178 159
6.530682 0.077510 -15.983906 179 181 167
6.503393 0.096475 -15.812476 149 158 141
6.567346 0.088070 -15.789869 147 156 139
6.508879 0.096286 -15.404314 231 243 203
6.525590 0.098976 -15.393870 207 221 185
6.500384 0.007072 -14.755997 65 80 49
6.509245 0.105484 -27.613410 188 184 172
6.506209 0.136260 -27.506583 203 197 182
6.537641 0.151337 -27.405548 248 246 234
6.550217 0.167384 -27.334545 248 246 241
6.599262 0.140658 -16.130123 254 254 244
6.583041 0.117465 -15.938506 128 142 127
6.541725 0.118301 -15.803379 129 141 127
6.528090 0.126735 -15.792512 146 157 140
6.585529 0.153389 -15.684227 120 132 120
6.502710 0.193266 -15.415454 203 224 183
6.539269 0.197294 -15.389121 107 128 97
6.500184 0.107000 -14.747035 123 133 108
6.575151 0.267696 -27.455793 193 199 197
6.568322 0.226764 -15.762478 164 175 159
6.518292 0.293710 -15.407779 162 183 151
6.540770 0.294878 -15.387162 102 123 91
6.516732 0.393856 -15.411093 125 147 109
6.536494 0.393752 -15.395416 105 127 89
6.516886 0.495372 -15.411416 131 149 111
6.537132 0.494038 -15.395002 107 125 87
6.516611 0.598308 -15.412498 156 174 134
6.539436 0.595181 -15.391649 111 129 89
6.516192 0.692225 -15.413781 154 172 132
6.537637 0.698566 -15.395560 109 127 87
6.512469 0.799275 -15.420921 160 177 143
6.552828 0.799924 -15.388803 107 122 83
6.597603 0.843259 -15.557614 124 139 120
6.535187 0.899311 -15.401312 104 121 87
6.589023 0.897978 -15.382995 92 108 69
6.500411 0.878662 -14.724599 26 28 15
6.599802 0.985472 -15.562210 95 108 90
6.532968 0.997134 -15.405926 100 117 83
6.512384 0.999961 -15.359549 182 198 162
6.504010 0.995214 -14.746992 42 44 30
6.500251 0.989018 -14.697118 15 18 9
6.549714 1.087705 -15.691071 105 123 107
6.598803 1.076472 -15.563744 121 135 118
6.547688 1.090261 -15.400396 92 108 69
6.586020 1.097885 -15.356264 108 124 79
6.502758 1.095928 -14.742019 37 38 22
6.585603 1.196247 -15.735436 24 25 17
6.561017 1.196379 -15.582479 196 214 200
6.529903 1.119089 -15.412205 96 111 72
6.592815 1.167192 -15.301929 125 141 92
6.520733 1.197278 -15.207364 128 145 93
6.501664 1.197685 -15.185172 129 147 95
6.500728 1.198667 -14.738927 39 39 27
6.574415 1.233112 -15.746668 184 195 187
6.531081 1.242973 -15.605322 55 70 49
6.598413 1.271388 -15.565770 142 164 151
6.568784 1.257991 -15.300129 250 255 238
6.584038 1.296870 -15.268820 132 143 103
6.503102 1.217748 -15.183786 130 146 97
6.501092 1.217820 -14.740299 42 42 30
6.511082 1.387107 -15.421435 226 237 202
6.590442 1.389932 -15.307313 190 198 147
6.592745 1.332979 -15.296302 175 186 143
6.514885 1.397772 -15.172672 164 176 130
6.500188 1.388976 -14.702214 25 27 14
6.500180 1.338927 -14.694801 11 13 8
6.504614 1.491462 -15.422420 250 255 228
6.580740 1.493352 -15.317548 217 215 161
6.599377 1.489151 -15.296186 218 216 159
6.541000 1.454172 -15.149210 129 142 99
6.506949 1.582731 -15.425586 255 254 255
6.528441 1.564495 -15.398613 254 255 245
6.599772 1.532831 -15.299573 220 217 162
6.591711 1.690065 -15.346963 137 158 117
6.618602 -0.470334 -28.200796 78 78 28
6.642667 -0.402510 -28.111390 183 176 95
6.620665 -0.403872 -28.022293 255 254 255
6.606729 -0.415056 -27.988328 255 255 253
6.698109 -0.401939 -27.700603 224 213 209
6.606082 -0.400743 -27.602498 206 193 185
6.619632 -0.403936 -27.506203 188 171 153
6.699405 -0.402279 -27.461317 159 143 127
6.611543 -0.380572 -28.104879 117 114 68
6.647846 -0.376612 -28.006419 211 207 206
6.634355 -0.382303 -27.900554 205 196 189
6.671268 -0.387898 -27.805993 197 185 173
6.658497 -0.390001 -27.703658 190 174 158
6.629193 -0.390613 -27.666759 182 166 150
6.617142 -0.399623 -27.523258 192 174 154
6.692316 -0.305290 -27.453828 173 160 141
6.697414 -0.308380 -27.399665 209 202 186
6.608573 -0.220432 -27.577784 214 211 204
6.609246 -0.209012 -27.458380 192 184 171
6.699550 -0.286545 -27.397137 209 202 186
6.654000 -0.202436 -15.703540 181 197 163
6.655691 -0.203690 -15.631347 162 181 140
6.698214 -0.204963 -15.515932 117 140 98
6.600906 -0.204169 -15.402556 92 108 72
6.608155 -0.202145 -15.347183 89 105 78
6.616847 -0.146454 -27.620896 195 190 181
6.644493 -0.102795 -27.547868 182 170 148
6.694589 -0.106798 -27.434168 188 175 156
6.685282 -0.109766 -15.701506 203 219 174
6.657798 -0.100621 -15.652924 199 217 175
6.699539 -0.150472 -15.515208 129 147 107
6.640797 -0.105031 -15.402651 92 110 72
6.607616 -0.101810 -15.391555 93 109 73
6.647889 -0.005148 -27.802666 165 159 147
6.657984 -0.005380 -27.785645 167 160 150
6.617502 -0.060779 -27.502723 186 174 152
6.616448 -0.038352 -27.409039 188 177 157
6.696311 -0.007253 -27.310251 188 177 157
6.691862 -0.071819 -17.203508 162 160 148
6.619958 -0.080631 -17.152807 162 160 148
6.649980 -0.080814 -17.051750 161 161 151
6.691481 -0.026108 -16.408383 123 131 118
6.691281 -0.022426 -16.335045 140 148 135
6.697030 -0.010257 -16.286352 123 139 126
6.638931 -0.004648 -16.066123 146 152 138
6.693358 -0.098883 -15.705847 222 235 189
6.662680 -0.086715 -15.620684 202 220 178
6.682597 -0.004449 -15.520061 130 145 112
6.650874 -0.003851 -15.404045 94 112 74
6.602505 -0.001582 -15.384089 94 110 74
6.630873 0.007877 -28.008807 151 147 138
6.627308 0.000237 -27.906377 161 154 144
6.613020 0.036487 -27.802250 171 164 148
6.633381 0.048639 -27.708508 177 174 159
6.622340 0.076245 -27.605128 116 110 96
6.669666 0.091693 -27.513072 200 189 169
6.606825 0.046027 -27.409364 195 187 168
6.642125 0.079570 -27.305551 190 179 159
6.694535 0.079224 -27.270074 190 179 159
6.678586 0.099709 -16.032055 227 224 207
6.693833 0.093323 -15.992117 227 224 207
6.636005 0.097448 -15.813001 203 200 185
6.669762 0.094022 -15.781778 202 200 185
6.673427 0.079970 -15.603737 205 222 177
6.698218 0.096973 -15.528103 189 206 161
6.643440 0.095774 -15.401854 93 111 73
6.604366 0.091337 -15.381995 92 109 75
6.626683 0.106344 -27.501855 200 192 171
6.670268 0.121811 -27.406469 199 188 168
6.602185 0.150876 -27.331232 255 254 249
6.614762 0.132101 -16.107477 238 235 218
6.633875 0.157110 -16.062533 255 255 246
6.682862 0.122853 -15.991398 227 224 209
6.643689 0.125677 -15.806200 204 201 186
6.691192 0.149802 -15.764574 200 201 185
6.642227 0.197334 -15.602890 138 153 134
6.689576 0.189586 -15.572353 209 228 183
6.651728 0.198674 -15.407071 95 113 73
6.605973 0.194552 -15.380530 91 108 72
6.626503 0.256515 -27.460825 197 203 201
6.689340 0.228151 -15.703379 164 175 159
6.646571 0.292388 -15.601995 166 181 162
6.693710 0.287140 -15.567239 216 235 190
6.652856 0.292723 -15.407028 98 117 72
6.606637 0.298953 -15.380846 108 129 102
6.625706 0.297238 -15.036791 201 215 190
6.645013 0.308274 -15.601220 168 182 165
6.698176 0.395210 -15.561825 158 180 142
6.647659 0.397011 -15.400164 98 117 71
6.607194 0.395114 -15.381238 91 109 67
6.647803 0.367533 -15.107393 115 124 79
6.629643 0.366716 -15.040356 191 204 161
6.697716 0.474831 -15.566194 144 164 127
6.655598 0.493846 -15.406282 106 126 73
6.608354 0.492414 -15.380521 92 109 67
6.686200 0.592661 -15.501842 157 170 144
6.657966 0.591108 -15.403859 109 127 76
6.600269 0.591054 -15.377746 93 110 67
6.696495 0.694632 -15.503226 198 212 163
6.659195 0.699685 -15.403954 104 122 72
6.619972 0.699983 -15.381274 94 111 66
6.693421 0.795155 -15.512527 198 213 170
6.659793 0.799913 -15.405104 103 121 71
6.638483 0.799534 -15.386993 100 118 70
6.691107 0.897567 -15.520737 170 188 150
6.662139 0.890297 -15.402563 104 121 76
6.600466 0.895898 -15.381519 93 110 69
6.675910 0.988755 -15.602868 158 182 148
6.686383 0.993014 -15.532360 163 179 143
6.663862 0.992220 -15.401524 104 123 77
6.612459 0.997493 -15.380378 96 113 71
6.674970 1.097236 -15.609754 206 226 189
6.690929 1.095481 -15.529965 189 205 166
6.663783 1.096672 -15.404115 107 126 80
6.626450 1.098056 -15.375521 97 114 72
6.646939 1.185483 -15.703998 179 189 178
6.683157 1.190243 -15.601350 102 119 85
6.698763 1.196562 -15.522422 210 227 191
6.664464 1.191399 -15.404973 109 128 82
6.612909 1.191997 -15.301208 132 148 99
6.606915 1.191875 -15.293220 131 147 98
6.606686 1.215691 -15.726197 184 195 187
6.697177 1.262239 -15.601285 254 255 251
6.699876 1.281844 -15.524559 219 236 200
6.656239 1.299876 -15.403067 111 130 84
6.613621 1.201935 -15.300521 132 148 99
6.611287 1.298427 -15.271432 144 157 111
6.699539 1.322110 -15.604809 174 200 175
6.699047 1.331871 -15.546238 231 250 220
6.658467 1.395683 -15.400791 128 138 88
6.601700 1.373362 -15.301609 191 196 142
6.631169 1.396797 -15.278424 222 214 149
6.699579 1.498456 -15.502819 196 211 180
6.684811 1.499816 -15.413533 105 122 77
6.626489 1.499198 -15.381977 174 179 114
6.639903 1.493666 -15.267414 220 217 150
6.699052 1.525439 -15.517813 203 223 196
6.684987 1.599877 -15.415801 97 116 70
6.627837 1.598515 -15.381048 132 141 90
6.625141 1.529650 -15.261881 221 217 154
6.691295 1.670310 -15.404909 100 119 74
6.607967 1.687491 -15.357909 128 146 104
6.708541 -0.439364 -28.115177 117 107 72
6.737352 -0.404518 -28.038110 247 244 237
6.797340 -0.401266 -27.996138 255 255 255
6.736858 -0.407521 -27.700317 226 216 215
6.744176 -0.401587 -27.602099 190 173 157
6.702955 -0.406264 -27.500308 181 166 147
6.777532 -0.401467 -27.471233 172 159 140
6.729101 -0.368891 -28.034228 255 255 253
6.749323 -0.386878 -27.901437 207 202 199
6.738025 -0.389362 -27.805566 199 189 180
6.733770 -0.390074 -27.756571 198 184 171
6.743309 -0.398066 -27.605468 195 177 163
6.779888 -0.399648 -27.535063 191 172 157
6.745736 -0.300339 -27.442714 170 157 140
6.798515 -0.303113 -27.384059 198 188 176
6.796084 -0.206260 -27.403259 184 171 154
6.772932 -0.226934 -27.386570 183 170 153
6.729265 -0.205250 -15.704522 109 132 88
6.704308 -0.200801 -15.696867 149 170 129
6.713510 -0.200569 -15.549844 187 209 171
6.700819 -0.209476 -15.489731 90 111 69
6.714879 -0.131615 -27.642110 226 220 213
6.772910 -0.104171 -27.549928 191 187 160
6.783222 -0.100601 -27.414423 188 175 156
6.791051 -0.102226 -27.396372 209 201 190
6.702645 -0.106667 -15.706171 204 217 171
6.724688 -0.120269 -15.697857 116 137 94
6.702109 -0.104142 -15.511406 143 161 119
6.700070 -0.107185 -15.455180 93 111 71
6.701186 -0.068706 -27.503015 186 173 153
6.789754 -0.021050 -27.402836 188 175 156
6.718082 -0.024683 -27.300782 187 176 158
6.771718 -0.006361 -27.266295 187 176 156
6.785097 -0.059269 -17.250238 160 158 146
6.706939 -0.080006 -17.193600 157 159 148
6.773534 -0.016569 -16.503761 103 120 104
6.715683 -0.025962 -16.489148 104 121 105
6.758514 -0.009086 -16.304211 155 163 150
6.719342 -0.007711 -15.717789 118 141 99
6.759187 -0.002975 -15.659519 110 132 94
6.701759 -0.004037 -15.516216 177 189 143
6.706766 -0.000579 -15.484821 99 115 72
6.723993 0.003141 -27.900536 164 156 143
6.766340 0.015538 -27.800141 171 164 148
6.770638 0.025159 -27.705537 132 125 109
6.743083 0.049504 -27.600221 138 131 123
6.731525 0.078007 -27.511946 197 186 166
6.703493 0.015216 -27.442077 192 183 166
6.737381 0.014941 -27.305731 187 174 155
6.716430 0.043252 -27.261124 188 177 157
6.749187 0.056191 -27.179465 190 179 159
6.763584 0.094561 -16.101945 255 255 255
6.702970 0.093059 -16.013901 226 223 206
6.711473 0.097681 -15.949684 228 225 208
6.750094 0.076039 -15.893776 228 225 208
6.759296 0.054120 -15.764534 205 223 183
6.794935 0.053670 -15.690930 226 236 201
6.700090 0.060134 -15.522487 173 189 144
6.700358 0.099616 -15.482167 100 117 75
6.747069 0.108791 -27.410721 198 187 167
6.791179 0.125322 -27.333950 191 183 164
6.739104 0.148102 -16.205298 181 177 165
6.700163 0.108224 -16.109307 228 225 210
6.707503 0.100152 -16.079292 222 220 205
6.701922 0.105913 -15.963604 228 225 208
6.744827 0.192649 -15.888422 255 255 245
6.716615 0.170151 -15.747476 199 200 182
6.797358 0.134098 -15.632403 177 193 156
6.701196 0.192338 -15.504453 143 162 117
6.700085 0.145920 -15.484473 100 117 73
6.755561 0.203692 -15.873561 255 253 240
6.721709 0.224016 -15.661184 99 114 95
6.702070 0.296909 -15.506589 149 168 123
6.704329 0.295088 -15.489574 154 172 134
6.701863 0.393365 -15.510775 129 151 107
6.701517 0.396759 -15.481986 114 135 92
6.703620 0.491025 -15.510714 134 152 111
6.701827 0.499671 -15.493817 115 132 88
6.706202 0.599595 -15.509273 208 217 170
6.701065 0.596667 -15.478007 119 131 78
6.736961 0.698255 -15.653978 112 125 105
6.707677 0.699714 -15.509925 219 231 185
6.702867 0.695867 -15.477663 117 129 80
6.797006 0.783252 -15.627344 86 99 81
6.707136 0.791762 -15.514668 223 237 194
6.700745 0.794620 -15.464597 111 128 83
6.799069 0.860490 -15.645053 101 119 107
6.709249 0.894123 -15.514013 228 241 199
6.702663 0.895818 -15.463956 113 130 85
6.794353 0.998319 -15.607060 197 214 182
6.710109 0.998513 -15.516172 175 193 152
6.700122 0.996408 -15.451571 110 127 82
6.705695 1.093889 -15.673495 167 191 155
6.709868 1.094521 -15.520414 162 183 141
6.702159 1.099651 -15.450629 109 128 82
6.770117 1.199370 -15.726870 213 230 196
6.703541 1.190047 -15.663283 165 179 146
6.709365 1.185938 -15.502948 190 207 165
6.705777 1.192020 -15.446016 111 130 85
6.764497 1.259485 -15.700761 254 255 242
6.707089 1.293193 -15.605717 222 236 210
6.700880 1.291877 -15.523460 219 236 200
6.702408 1.295823 -15.435107 109 128 83
6.730951 1.351521 -15.607708 243 255 230
6.706734 1.396001 -15.519117 212 223 193
6.706551 1.389038 -15.429357 108 125 81
6.700546 1.392680 -15.364740 86 102 76
6.708707 1.444998 -15.672450 174 184 175
6.718891 1.494615 -15.504777 184 204 167
6.701442 1.496586 -15.421887 106 123 78
6.702873 1.423512 -15.373410 85 101 75
6.726522 1.538227 -15.512984 178 200 164
6.701683 1.596319 -15.424306 97 116 70
6.798204 1.687301 -16.003584 251 248 243
6.787654 1.696986 -15.953892 201 193 173
6.707630 1.655701 -15.413794 100 119 74
6.789651 1.707191 -15.950815 255 250 250
6.862734 -0.403490 -28.004193 105 100 97
6.899292 -0.400167 -27.969149 255 254 255
6.879090 -0.403868 -27.706053 199 186 177
6.818834 -0.413792 -27.609938 193 176 160
6.854639 -0.409072 -27.500449 180 163 147
6.842722 -0.400004 -27.490119 175 158 142
6.897293 -0.402539 -27.398333 131 121 109
6.803321 -0.376220 -28.004780 255 255 255
6.846656 -0.391668 -27.908549 255 255 255
6.810249 -0.392543 -27.840240 209 200 195
6.865785 -0.388593 -27.703954 202 188 177
6.850278 -0.395138 -27.604648 195 178 162
6.877483 -0.310383 -27.500111 182 170 156
6.853160 -0.300980 -27.497032 181 169 154
6.800403 -0.312727 -27.399526 192 182 172
6.865723 -0.227651 -27.625607 212 206 207
6.856806 -0.221479 -27.518403 206 199 190
6.847600 -0.214874 -27.404933 202 193 178
6.812479 -0.212236 -27.360037 179 174 153
6.803864 -0.202247 -15.747565 91 112 73
6.809887 -0.206960 -15.680300 93 114 83
6.809992 -0.205161 -15.554001 162 185 159
6.852258 -0.104509 -27.599499 247 239 235
6.889604 -0.106155 -27.407540 188 175 156
6.862868 -0.142616 -27.391708 165 164 160
6.808638 -0.107299 -15.742209 92 114 75
6.815573 -0.102290 -15.675179 96 117 86
6.829034 -0.107518 -15.569976 144 166 143
6.877974 -0.006700 -27.806841 170 166 157
6.886736 -0.063442 -27.515544 187 174 155
6.887269 -0.026795 -27.413453 188 175 156
6.898039 -0.001862 -27.330276 188 175 156
6.814023 -0.054911 -17.256882 160 158 146
6.815155 -0.070467 -17.158940 171 171 161
6.851489 -0.003388 -16.513128 139 151 137
6.883446 -0.003474 -16.458634 156 173 157
6.804455 -0.024970 -15.760602 97 120 78
6.807876 -0.008105 -15.673123 103 124 93
6.835504 -0.001849 -15.574961 130 160 134
6.815766 0.004140 -27.809867 171 164 148
6.850797 0.015572 -27.707358 177 169 150
6.814848 0.038086 -27.601236 184 173 153
6.820205 0.066263 -27.501408 193 182 162
6.833884 0.096121 -27.400866 194 183 163
6.894784 0.098271 -27.366473 192 181 161
6.899328 0.052586 -27.202115 189 179 159
6.852643 0.093816 -16.301830 181 175 163
6.868821 0.079574 -16.208388 220 219 201
6.804656 0.095296 -16.166505 253 253 243
6.802674 0.080365 -16.074747 255 255 255
6.823099 0.086572 -15.902131 235 237 215
6.836763 0.095210 -15.809676 145 153 112
6.841602 0.098097 -15.779183 132 140 99
6.801174 0.053827 -15.698059 244 251 219
6.825602 0.095502 -15.572028 168 194 163
6.893630 0.132267 -27.434004 184 179 167
6.895234 0.131023 -27.313047 192 185 169
6.894919 0.108766 -27.224823 192 184 165
6.882756 0.129235 -16.507900 178 176 163
6.858972 0.128261 -16.456996 178 176 164
6.824047 0.118102 -16.345097 178 175 160
6.818048 0.100770 -16.266465 183 177 163
6.800171 0.109747 -16.189248 179 175 163
6.823361 0.193079 -15.777182 254 254 243
6.836026 0.199949 -15.612291 190 201 165
6.842273 0.196228 -15.579516 170 195 165
6.864255 0.197165 -15.497565 162 177 158
6.867251 0.234373 -15.716291 230 228 206
6.877520 0.298081 -15.602133 183 203 168
6.848518 0.297138 -15.573678 175 201 172
6.866520 0.264164 -15.499413 175 188 168
6.898128 0.393874 -15.605030 104 129 100
6.891980 0.385021 -15.598965 128 158 132
6.805434 0.399562 -15.494397 95 108 88
6.879395 0.499718 -15.604341 151 168 136
6.885826 0.499875 -15.585320 155 181 152
6.812183 0.493333 -15.492150 158 172 139
6.883822 0.597424 -15.600731 181 201 166
6.864796 0.598723 -15.597270 183 203 168
6.821728 0.596150 -15.496434 139 154 131
6.885865 0.696569 -15.600325 192 208 179
6.858197 0.699243 -15.593631 200 215 181
6.839472 0.666372 -15.499092 150 165 142
6.875765 0.799199 -15.601601 214 228 193
6.839639 0.794205 -15.590546 196 217 186
6.887845 0.899376 -15.602419 250 255 245
6.834441 0.871894 -15.598551 139 159 132
6.877172 0.996487 -15.604133 190 209 177
6.869210 0.993275 -15.528989 182 203 188
6.857842 1.097330 -15.602091 201 211 179
6.882641 1.098960 -15.599203 215 226 194
6.857199 1.196007 -15.604907 202 217 188
6.884374 1.195022 -15.599055 196 212 183
6.884886 1.297994 -15.615645 125 142 116
6.895254 1.210970 -15.599830 193 207 181
6.836460 1.327549 -15.619223 143 166 140
6.862496 1.325307 -15.598345 79 97 75
6.893121 1.480995 -15.600172 188 204 168
6.889505 1.499200 -15.588853 213 233 196
6.866481 1.588588 -15.763989 183 181 153
6.872521 1.599345 -15.531470 115 140 108
6.868676 1.696745 -16.103941 255 255 255
6.806945 1.698906 -16.011016 255 255 251
6.801001 1.699551 -15.974800 196 184 162
6.820265 1.695688 -15.865417 149 151 114
6.873427 1.697196 -15.759893 143 147 110
6.888410 1.639911 -15.564270 135 158 116
6.892443 1.711324 -16.103333 166 166 140
6.884578 1.796512 -16.002829 151 148 113
6.836668 1.791254 -15.910511 151 149 111
6.830246 1.766765 -15.874772 151 148 113
6.875239 1.800742 -15.974223 151 149 111
6.968816 -0.400198 -27.939141 255 255 255
6.995484 -0.403348 -27.810785 212 204 201
6.932821 -0.404253 -27.715973 202 189 180
6.946191 -0.404199 -27.612332 187 180 174
6.909488 -0.410424 -27.511966 177 171 153
6.914547 -0.404210 -27.480389 174 161 144
6.988622 -0.407299 -27.399318 185 170 149
6.934506 -0.385641 -27.904696 255 255 255
6.964561 -0.399410 -27.802291 211 203 199
6.923552 -0.399323 -27.740231 200 190 181
6.949488 -0.393851 -27.600330 196 178 164
6.997287 -0.396020 -27.525001 194 175 158
6.986774 -0.300354 -27.414739 172 159 142
6.980902 -0.361102 -27.391815 170 157 140
6.900186 -0.252767 -27.500605 211 199 186
6.987902 -0.205117 -27.413398 180 167 148
6.989620 -0.203028 -27.394058 181 168 149
6.975958 -0.203432 -15.904209 122 124 87
6.910409 -0.200351 -15.802076 119 123 86
6.904328 -0.200504 -15.795128 118 123 83
6.940265 -0.101394 -27.403501 188 176 160
6.979996 -0.113949 -27.393444 174 165 159
6.974324 -0.105328 -15.900315 122 124 87
6.915784 -0.102259 -15.801615 121 123 86
6.900315 -0.101285 -15.774397 117 122 82
6.902163 -0.104625 -15.600817 100 117 107
6.901879 -0.103547 -15.592360 115 132 122
6.981005 -0.007523 -27.857379 176 172 161
6.929397 -0.060451 -27.501206 186 175 157
6.934667 -0.023395 -27.401378 188 175 156
6.935075 -0.000197 -27.313068 188 175 156
6.919843 -0.028546 -17.286525 158 156 144
6.910556 -0.048845 -17.076876 171 171 161
6.986024 -0.005210 -15.908201 122 124 87
6.928324 -0.002613 -15.805955 123 125 86
6.900972 -0.002069 -15.763648 119 124 84
6.900596 -0.047339 -15.606083 108 129 122
6.901360 -0.000260 -15.576409 146 161 142
6.965349 0.010813 -27.717670 177 169 150
6.978724 0.019422 -27.610066 186 177 160
6.970492 0.044508 -27.509457 191 180 160
6.903603 0.083666 -27.404389 192 181 161
6.919417 0.099421 -27.356553 192 181 161
6.952172 0.042717 -27.230705 187 179 160
6.985290 0.094719 -27.191336 192 185 169
6.952860 0.014643 -16.507709 88 79 70
6.916943 0.097222 -16.406286 179 175 163
6.901945 0.096572 -16.378673 206 200 188
6.904955 0.071654 -16.240361 218 217 199
6.900734 0.058967 -16.128729 253 253 243
6.934386 0.069806 -16.030616 240 242 221
6.904762 0.060503 -15.983293 241 243 219
6.903674 0.042166 -15.869181 221 218 187
6.900880 0.031275 -15.788379 217 214 183
6.903401 0.093708 -15.646339 158 161 132
6.900137 0.096286 -15.552890 149 166 146
6.975815 0.133277 -27.405615 195 190 181
6.950659 0.117964 -27.331209 190 183 167
6.915489 0.107531 -27.200456 191 183 164
6.900089 0.130269 -16.535113 180 176 164
6.903891 0.121778 -16.498487 180 176 165
6.903218 0.124630 -16.389417 173 171 158
6.901461 0.196287 -15.623545 105 116 82
6.900922 0.199272 -15.570257 150 167 148
6.904215 0.299131 -15.608421 91 111 83
6.903078 0.297052 -15.561711 160 179 159
6.903327 0.385371 -15.611929 95 120 91
6.900358 0.381647 -15.594762 106 131 110
6.901584 0.491592 -15.605315 115 132 106
6.900731 0.491065 -15.594539 115 138 113
6.903633 0.568179 -15.603526 121 135 110
6.909236 0.591904 -15.586704 120 144 118
6.910654 0.608711 -15.585398 119 143 117
6.900373 0.771259 -15.626233 141 156 117
6.940590 0.794457 -15.546778 137 158 143
6.901902 0.863663 -15.626603 141 155 119
6.900473 0.864285 -15.595203 106 128 105
6.902381 0.992451 -15.614534 120 132 92
6.901563 0.992069 -15.555849 171 194 178
6.901634 1.094396 -15.603319 117 131 98
6.903375 1.189853 -15.603311 114 130 101
6.900577 1.221207 -15.607832 113 127 101
6.902440 1.499525 -15.603635 147 163 126
6.928607 1.592306 -15.600538 120 133 95
6.903706 1.592881 -15.550263 123 143 106
6.971553 1.693847 -16.207341 162 164 142
6.907642 1.696627 -16.145635 255 255 255
6.917333 1.627645 -15.645842 130 142 104
6.904040 1.613808 -15.570009 142 161 115
6.997915 1.729359 -16.200395 154 151 116
6.973937 1.798756 -16.104944 150 147 112
6.906918 1.797073 -16.028358 151 148 113
6.985714 1.804733 -16.103272 150 147 112
6.904889 1.801487 -16.008106 151 148 113
7.043881 -0.401231 -27.932199 255 255 255
7.003468 -0.404363 -27.801865 212 204 201
7.006460 -0.407415 -27.789073 212 203 196
7.053686 -0.401754 -27.502282 196 180 165
7.058767 -0.408945 -27.402771 199 180 163
7.085639 -0.400399 -27.374248 162 146 123
7.031734 -0.393604 -27.901631 255 255 255
7.086368 -0.394947 -27.821425 210 203 199
7.011894 -0.397420 -27.777894 206 197 190
7.032605 -0.393284 -27.600380 196 179 163
7.030334 -0.396538 -27.505964 197 178 161
7.055202 -0.306142 -27.405015 170 157 138
7.089399 -0.310908 -27.362400 156 147 133
7.088174 -0.250911 -28.209383 255 254 250
7.037528 -0.200858 -27.403946 180 167 148
7.098728 -0.209852 -27.388197 178 167 147
7.084153 -0.200540 -16.106560 110 111 80
7.039976 -0.208497 -16.015805 122 123 89
7.001574 -0.206125 -15.952701 122 123 88
7.063289 -0.113900 -27.610438 243 242 239
7.008457 -0.181539 -27.558709 221 222 217
7.025717 -0.107176 -27.404927 213 204 199
7.087480 -0.105056 -27.389883 186 175 156
7.089684 -0.102657 -16.104341 110 110 82
7.033167 -0.100158 -16.005208 122 123 89
7.000585 -0.107166 -15.947816 122 124 87
7.007873 -0.005541 -27.847908 192 188 179
7.052397 -0.059488 -27.524621 189 180 165
7.014580 -0.030754 -27.405950 187 174 155
7.085545 -0.001343 -27.320560 188 175 156
7.008502 -0.014878 -17.296714 155 153 141
7.093320 -0.004787 -16.106270 110 111 80
7.031140 -0.008827 -16.002382 122 124 87
7.001312 -0.006234 -15.938301 122 124 87
7.002155 0.020814 -27.600059 187 178 161
7.079068 0.038505 -27.523977 189 178 158
7.007684 0.074120 -27.401931 190 179 159
7.091776 0.095243 -27.360288 189 182 163
7.000666 0.047440 -27.238607 188 180 161
7.069263 0.084465 -27.193833 234 231 224
7.068238 0.097318 -16.609132 255 255 251
7.059447 0.065633 -16.532962 200 202 197
7.065589 0.061761 -16.461596 201 203 198
7.079585 0.056660 -16.305878 255 255 255
7.007507 0.061674 -16.279569 219 218 200
7.003630 0.050537 -16.163101 218 216 201
7.005168 0.065841 -16.065075 239 239 215
7.003495 0.044080 -15.989540 226 221 189
7.038867 0.107007 -27.401049 191 183 164
7.017718 0.123056 -27.335710 190 184 168
7.090632 0.150473 -27.250973 255 254 247
7.000258 0.119005 -16.603420 194 193 188
7.001459 0.110543 -16.568379 190 191 185
7.003083 0.109766 -16.489184 163 161 148
7.002679 1.693532 -16.240077 158 157 125
7.085954 1.799948 -16.200989 149 146 111
7.004419 1.798313 -16.136969 150 147 112
7.091219 1.805324 -16.247388 150 147 112
7.001252 1.803907 -16.118223 150 147 112
7.154151 -0.714367 -26.965477 190 194 193
7.190285 -0.632004 -26.949588 190 194 193
7.197052 -0.401287 -27.809212 244 235 236
7.197077 -0.401852 -27.747654 220 209 203
7.198393 -0.400381 -27.681232 209 195 186
7.126332 -0.403770 -27.503367 202 186 173
7.191080 -0.401043 -27.406337 201 183 163
7.178081 -0.401348 -27.368123 177 159 139
7.127706 -0.397532 -27.906129 255 255 255
7.148371 -0.361873 -27.855416 210 201 194
7.111188 -0.396600 -27.703352 208 195 186
7.159601 -0.397118 -27.600304 205 189 176
7.156285 -0.306984 -27.503855 212 206 213
7.162088 -0.300629 -27.472977 205 206 201
7.192068 -0.301770 -27.361306 174 161 142
7.192443 -0.205960 -27.349074 176 165 147
7.197106 -0.202766 -16.303170 97 100 80
7.138251 -0.202977 -16.203509 109 109 81
7.103131 -0.201767 -16.142939 109 109 81
7.165226 -0.120318 -27.418627 213 204 187
7.133224 -0.100332 -27.391204 186 175 157
7.199946 -0.115132 -16.305235 97 100 81
7.142691 -0.104964 -16.204797 110 110 82
7.103623 -0.103482 -16.132460 109 109 81
7.125847 -0.048991 -27.542805 231 221 219
7.177037 -0.036947 -27.470213 238 237 232
7.183968 -0.003532 -27.356109 185 178 160
7.197388 -0.001942 -27.288186 175 171 160
7.103395 -0.008906 -17.282588 137 133 124
7.199842 -0.080383 -16.308451 98 101 82
7.147222 -0.005926 -16.205986 111 111 83
7.103168 -0.004947 -16.124001 110 110 82
7.124183 0.041062 -27.504534 190 179 159
7.121054 0.066478 -27.403969 188 180 161
7.156220 0.084811 -27.381717 186 179 169
7.171852 0.051329 -27.297161 170 166 155
7.158619 0.071555 -27.164064 137 136 132
7.172630 0.049333 -27.096844 178 174 163
7.171553 0.080068 -17.313567 155 155 145
7.186784 0.052985 -17.299754 153 153 143
7.195970 0.055103 -16.802004 190 191 186
7.179810 0.057992 -16.716910 192 191 186
7.108623 0.065849 -16.602144 200 202 197
7.102213 0.065756 -16.593989 200 202 197
7.102852 0.055594 -16.469475 200 201 196
7.111106 0.063599 -16.302740 222 220 205
7.106956 0.063954 -16.290693 222 220 205
7.102792 0.044909 -16.170595 209 203 179
7.191008 0.149351 -27.414055 190 183 167
7.159301 0.135203 -27.365907 189 183 167
7.100841 0.149838 -27.241919 252 248 242
7.113817 0.106335 -16.701077 165 162 153
7.110324 0.106715 -16.690584 165 162 153
7.105618 0.102729 -16.514596 167 165 153
7.255465 -0.814307 -26.975300 189 193 192
7.205346 -0.727801 -26.970175 190 194 193
7.202640 -0.604685 -26.944161 190 194 193
7.290425 -0.513759 -26.932258 190 194 193
7.206387 -0.401628 -27.804254 240 231 232
7.218232 -0.401036 -27.704179 209 198 192
7.268085 -0.401601 -27.603779 205 191 182
7.291864 -0.400144 -27.558666 203 185 171
7.202865 -0.400782 -27.401128 200 182 162
7.260338 -0.400115 -27.373571 200 182 162
7.298680 -0.401575 -27.278870 192 182 170
7.295943 -0.488326 -26.929722 190 194 193
7.244069 -0.333264 -27.931389 209 203 197
7.200639 -0.399623 -27.718082 211 201 192
7.209341 -0.399340 -27.604955 207 191 176
7.204089 -0.395296 -27.503599 201 182 165
7.290408 -0.395805 -27.415457 201 183 163
7.206469 -0.300471 -27.359281 174 161 142
7.280736 -0.300176 -27.299716 194 186 175
7.298804 -0.398524 -26.904740 194 198 197
7.240046 -0.201522 -27.341229 174 163 145
7.227978 -0.244909 -27.268381 181 180 176
7.299983 -0.239472 -16.503108 96 99 80
7.263364 -0.200067 -16.429550 97 100 81
7.201639 -0.203266 -16.312303 97 100 80
7.290525 -0.104863 -27.334265 179 168 150
7.297917 -0.100263 -27.293484 203 195 184
7.297928 -0.106961 -16.504065 70 73 56
7.252849 -0.101102 -16.404334 97 100 81
7.238337 -0.100178 -16.377507 97 100 81
7.257681 -0.075936 -27.779600 230 226 217
7.292343 -0.022552 -27.605955 255 248 246
7.294645 -0.018967 -27.513477 249 248 244
7.274580 -0.017111 -27.421781 220 213 197
7.220533 -0.012936 -27.375887 183 177 165
7.246377 -0.000158 -27.269194 174 171 160
7.204881 -0.001181 -17.270369 150 150 140
7.299890 -0.043716 -16.502911 70 73 56
7.265529 -0.001213 -16.406890 98 101 82
7.246780 -0.000081 -16.369729 97 100 79
7.201369 -0.007666 -16.293666 98 101 82
7.292748 0.033141 -27.600928 232 224 211
7.257219 0.079087 -27.415335 177 170 160
7.275015 0.060731 -27.303037 179 176 169
7.234537 0.035631 -27.203551 159 155 144
7.208292 0.037292 -27.105488 222 216 204
7.243305 0.023078 -27.094218 186 178 159
7.216780 0.086826 -17.297177 156 156 146
7.287298 0.094694 -17.120816 176 178 175
7.285231 0.089882 -17.048949 175 177 174
7.270854 0.050070 -16.900241 191 192 187
7.200306 0.055019 -16.813625 189 190 185
7.202408 0.049402 -16.752243 190 191 186
7.207964 0.057119 -16.603208 206 207 201
7.200827 0.056749 -16.597439 206 207 201
7.205623 0.047799 -16.481262 202 202 195
7.200155 0.041490 -16.336832 190 186 174
7.201525 0.036401 -16.297118 190 186 174
7.287357 0.107830 -27.409699 192 185 167
7.273905 0.144881 -27.388070 185 181 172
7.233161 0.141087 -27.241519 239 235 232
7.285025 0.116123 -17.269340 184 181 172
7.290765 0.111353 -16.808801 156 156 146
7.222795 0.116740 -16.702847 161 158 146
7.201786 0.108807 -16.639837 164 162 150
7.279487 0.331556 -17.603852 217 216 211
7.302755 -0.827046 -26.980683 188 192 191
7.335510 -0.722627 -26.965673 188 192 191
7.318129 -0.605569 -26.946781 189 193 192
7.346942 -0.503092 -26.933627 190 194 193
7.302048 -0.412851 -27.803228 240 239 244
7.353994 -0.405415 -27.701017 220 215 212
7.324599 -0.404248 -27.601618 208 191 181
7.362927 -0.400579 -27.556862 204 188 175
7.371525 -0.403204 -27.403049 203 186 170
7.362043 -0.400273 -27.301755 165 152 133
7.393940 -0.407201 -27.273576 186 176 164
7.322478 -0.434883 -26.917985 190 194 193
7.304796 -0.399395 -27.703392 224 217 215
7.303033 -0.399928 -27.614316 221 211 209
7.351657 -0.396483 -27.501218 200 183 167
7.325447 -0.394630 -27.401265 199 181 164
7.333666 -0.300873 -27.342673 173 160 141
7.388850 -0.385456 -27.299620 168 155 136
7.395063 -0.398210 -26.912077 190 194 193
7.301331 -0.271677 -27.878164 206 208 207
7.307880 -0.210808 -27.317680 190 181 166
7.395473 -0.214938 -27.299988 170 161 144
7.359341 -0.201881 -16.609372 84 85 67
7.301676 -0.203685 -16.503530 96 99 80
7.301584 -0.272890 -16.495031 97 98 80
7.338428 -0.100729 -27.328713 177 166 148
7.375952 -0.167959 -27.294058 172 163 148
7.399838 -0.143445 -16.703917 63 65 51
7.354075 -0.100019 -16.602164 84 85 67
7.306495 -0.104634 -16.504373 98 99 81
7.301230 -0.104484 -16.496002 97 99 81
7.327325 -0.056561 -27.688467 255 254 252
7.372703 -0.039812 -27.594966 255 255 246
7.378787 -0.030982 -27.470437 255 251 254
7.317335 -0.003319 -27.380760 185 174 154
7.370161 -0.008398 -27.235323 108 108 100
7.341075 -0.001875 -27.193138 100 100 92
7.399880 -0.002383 -16.700447 64 66 52
