ply
format ascii 1.0
element vertex 1202
property float x
property float y
property float z
property uchar red
property uchar green
property uchar blue
end_header
6.215467 0.488590 -6.096257 38 36 49
6.202737 0.489016 -4.802539 146 163 153
6.202040 0.479967 -4.700898 163 186 178
6.213904 0.492379 -4.603731 133 141 135
6.231866 0.493256 -4.518337 144 145 139
6.246506 0.494650 -4.418210 147 148 143
6.262225 0.496085 -4.313504 149 150 145
6.205765 0.493277 -4.223171 137 139 128
6.203507 0.498124 -4.121242 148 151 140
6.223579 0.495818 -4.007786 149 152 141
6.229169 0.498699 -3.979247 149 153 139
6.250233 0.496674 -3.849556 150 154 141
6.272112 0.494839 -3.703587 150 153 142
6.277858 0.498334 -3.664780 151 154 143
6.294072 0.493550 -3.533949 150 154 140
6.299052 0.497693 -3.484649 149 152 141
6.299873 0.466329 -3.373552 137 143 131
6.226760 0.599165 -6.316353 104 101 118
6.224994 0.595739 -6.298501 103 100 117
6.200945 0.545339 -6.126782 86 89 94
6.205645 0.597798 -6.030004 94 99 105
6.201435 0.593035 -4.807632 149 166 158
6.201754 0.597678 -4.719293 164 185 178
6.204337 0.599133 -4.695654 164 185 178
6.250667 0.597192 -4.517185 142 144 139
6.260778 0.599546 -4.472811 143 146 139
6.299163 0.593318 -4.349992 147 146 141
6.203049 0.599936 -4.247183 136 137 129
6.203155 0.594130 -4.119574 147 150 141
6.208900 0.597560 -4.095182 147 150 141
6.227660 0.599953 -3.973091 148 152 138
6.243134 0.598013 -3.876007 149 152 141
6.259749 0.595890 -3.773028 149 152 141
6.283128 0.598441 -3.622206 149 152 141
6.294169 0.592304 -3.534404 150 153 142
6.299586 0.597607 -3.487251 151 153 142
6.233097 0.664713 -6.300464 96 92 107
6.218120 0.685321 -6.252875 52 46 60
6.219480 0.626638 -6.195712 56 53 65
6.221886 0.671347 -6.076502 103 111 113
6.200128 0.650941 -4.809361 149 166 158
6.202557 0.689896 -4.700094 162 188 179
6.204857 0.694776 -4.620227 143 160 152
6.209827 0.699041 -4.575616 124 129 123
6.222409 0.699528 -4.450907 137 138 132
6.240479 0.698844 -4.326722 139 140 134
6.205662 0.698199 -4.233290 133 134 126
6.202187 0.690467 -4.115690 146 149 140
6.207938 0.694719 -4.091286 146 149 140
6.221688 0.696036 -3.999905 146 149 140
6.253872 0.697809 -3.806976 148 151 140
6.271363 0.698902 -3.700040 148 151 140
6.283253 0.694593 -3.622711 147 150 139
6.294727 0.690669 -3.537037 148 151 140
6.299915 0.630782 -3.488843 149 152 143
6.231338 0.721006 -6.283133 66 57 74
6.206926 0.766648 -6.195990 77 76 84
6.206378 0.730861 -6.098304 187 191 194
6.208444 0.798794 -4.847956 154 173 167
6.226946 0.799166 -4.760991 153 174 167
6.224032 0.797168 -4.696790 142 153 145
6.246965 0.797113 -4.510975 136 138 133
6.252126 0.799056 -4.492690 138 139 134
6.276992 0.798619 -4.387057 140 141 135
6.207804 0.799068 -4.216682 132 133 125
6.202400 0.799856 -4.115998 143 146 137
6.212064 0.797683 -4.059711 144 147 138
6.221322 0.795954 -3.998169 145 148 139
6.248065 0.797548 -3.839948 146 149 138
6.258759 0.795738 -3.768463 147 150 139
6.277239 0.799709 -3.661721 146 149 138
6.289345 0.797772 -3.582346 147 150 139
6.298509 0.789765 -3.460748 138 144 134
6.281912 0.899526 -8.603416 201 172 216
6.256645 0.899898 -8.590193 198 171 216
6.258290 0.895615 -6.300084 15 8 24
6.250144 0.899211 -6.280255 37 22 43
6.209795 0.891845 -6.184516 86 75 91
6.225059 0.873241 -6.095678 85 83 94
6.207797 0.804495 -5.998129 108 111 120
6.216262 0.899693 -4.810368 137 148 142
6.221262 0.896248 -4.765619 139 150 144
6.217261 0.896817 -4.698208 130 139 134
6.240697 0.898117 -4.541151 133 135 130
6.260730 0.897986 -4.458645 136 138 133
6.282651 0.897477 -4.373715 138 139 133
6.204524 0.894834 -4.234337 130 131 123
6.203897 0.894443 -4.120982 141 144 135
6.212901 0.894636 -4.062435 142 145 136
6.231059 0.895830 -3.934039 144 147 136
6.241500 0.895859 -3.868639 144 147 136
6.265242 0.894711 -3.735470 145 148 137
6.277378 0.894527 -3.662251 145 148 137
6.289928 0.894455 -3.585013 145 148 137
6.298965 0.899962 -3.456289 137 143 133
6.252515 0.928784 -9.323111 113 133 124
6.220493 0.949446 -8.601218 229 197 246
6.201088 0.958542 -8.591276 212 183 231
6.298981 0.998568 -6.318448 8 11 17
6.295440 0.996699 -6.297171 27 37 39
6.273686 0.960702 -6.163218 99 101 100
6.208316 0.965701 -6.074489 87 87 97
6.210029 0.999146 -4.815197 127 137 129
6.217078 0.996076 -4.774297 128 138 130
6.216569 0.997829 -4.653138 120 128 121
6.230947 0.996828 -4.594171 124 129 123
6.266180 0.998530 -4.447448 133 134 128
6.281179 0.998278 -4.376168 134 135 129
6.200311 0.991576 -4.247833 126 129 120
6.204779 0.989175 -4.123755 139 142 133
6.209251 0.997087 -4.094860 139 142 133
6.231808 0.996798 -3.936677 140 143 132
6.241661 0.999517 -3.869029 142 145 136
6.259316 0.994259 -3.770474 142 145 136
6.284530 0.997479 -3.628326 143 146 137
6.297729 0.999455 -3.551213 144 147 138
6.298339 0.993162 -3.446261 135 141 131
6.287699 1.031076 -8.501429 23 13 33
6.280841 1.089663 -8.499340 221 201 239
6.295865 1.016642 -6.312598 7 7 15
6.272501 1.008693 -6.299439 2 3 8
6.286549 1.003389 -6.101485 102 107 103
6.282024 1.075364 -6.003038 123 127 126
6.205589 1.030360 -5.964696 135 139 150
6.250629 1.069575 -5.856058 132 141 142
6.280197 1.098298 -5.774492 131 144 137
6.221545 1.096509 -5.697927 138 149 145
6.200066 1.098042 -4.838062 119 129 121
6.206985 1.096352 -4.796806 119 129 121
6.212991 1.098055 -4.691177 116 124 116
6.235605 1.096972 -4.586175 124 126 121
6.258838 1.096453 -4.471078 128 131 124
6.273947 1.098312 -4.399889 129 132 125
6.201715 1.098203 -4.228021 121 124 115
6.204995 1.097906 -4.124074 136 139 128
6.209200 1.093415 -4.094289 136 139 128
6.221963 1.093951 -3.999591 137 140 129
6.248032 1.096943 -3.839123 138 144 134
6.266024 1.094776 -3.738540 142 145 136
6.278577 1.098607 -3.667417 142 145 134
6.298291 1.096730 -3.553866 142 145 134
6.298350 1.085834 -3.440212 135 141 131
6.253616 1.181511 -8.649470 199 177 216
6.282663 1.123924 -8.553613 224 206 239
6.249348 1.100955 -6.322579 119 107 131
6.241756 1.198867 -6.213565 51 43 64
6.245784 1.199146 -6.194873 67 65 79
6.270343 1.116029 -5.817061 131 135 136
6.273062 1.100842 -5.774998 131 144 137
6.200220 1.127835 -5.698405 132 145 138
6.200161 1.164557 -4.812218 115 125 117
6.203098 1.199259 -4.775910 113 123 115
6.224005 1.199436 -4.636635 111 118 110
6.233838 1.197755 -4.593252 113 120 112
6.253166 1.195096 -4.499898 118 123 116
6.277259 1.199000 -4.373509 121 126 119
6.203421 1.193899 -4.204100 117 120 111
6.203410 1.194875 -4.117971 129 135 123
6.208542 1.190347 -4.091501 130 136 124
6.221597 1.193672 -3.997858 134 137 126
6.242040 1.191587 -3.870074 136 139 128
6.260134 1.191867 -3.773594 138 141 132
6.278718 1.192965 -3.667955 139 142 133
6.292091 1.198746 -3.594940 140 143 134
6.299632 1.176697 -3.442138 134 140 130
6.204552 1.256964 -8.750084 227 206 247
6.245377 1.214269 -8.663568 189 178 210
6.226864 1.299430 -6.246258 64 56 77
6.246138 1.295180 -6.184246 67 70 77
6.261271 1.250819 -6.071564 127 119 143
6.221814 1.274139 -5.996145 116 130 131
6.232225 1.299270 -5.000155 110 120 111
6.223641 1.295883 -4.984167 110 120 111
6.202777 1.292333 -4.890769 122 132 124
6.202433 1.294031 -4.756240 108 118 110
6.217967 1.295928 -4.665324 103 113 104
6.235633 1.296993 -4.571732 109 116 108
6.254771 1.297803 -4.473434 112 117 110
6.274498 1.299166 -4.367358 112 119 111
6.200503 1.291707 -4.224299 111 117 107
6.200022 1.280619 -4.105434 124 130 118
6.205755 1.289920 -4.080942 124 130 118
6.221812 1.292675 -3.998338 125 131 119
6.242746 1.294170 -3.872674 131 137 125
6.261290 1.297039 -3.778321 132 138 126
6.286294 1.297937 -3.636160 134 140 129
6.292913 1.294135 -3.598716 134 140 130
6.281366 1.288973 -3.498887 153 154 146
6.286821 1.382433 -8.969506 239 219 247
6.292338 1.395267 -8.847569 125 161 151
6.226527 1.304034 -8.792566 136 168 161
6.242269 1.399602 -6.246986 31 28 47
6.239903 1.398457 -6.190380 53 56 63
6.200942 1.365547 -6.091154 94 104 106
6.217983 1.321594 -5.934432 144 144 161
6.211426 1.363575 -5.893779 112 108 125
6.205745 1.396821 -5.012506 125 135 129
6.216811 1.399292 -4.986595 124 133 128
6.237076 1.391725 -4.890101 122 132 124
6.201866 1.393513 -4.735869 99 106 98
6.210738 1.395071 -4.692009 97 104 96
6.227414 1.399963 -4.595958 102 109 101
6.251095 1.399020 -4.467842 105 113 102
6.266749 1.395343 -4.386438 107 114 106
6.287824 1.399920 -4.273043 109 115 105
6.202638 1.395897 -4.144303 116 124 109
6.204183 1.388416 -4.074816 118 126 113
6.219704 1.394679 -3.989964 119 127 114
6.242366 1.398001 -3.870870 123 129 117
6.261471 1.388015 -3.778925 126 132 120
6.280900 1.394304 -3.677524 129 135 123
6.293147 1.358019 -3.599780 132 138 126
6.298663 1.385194 -3.478943 129 135 123
6.299426 1.499744 -9.662009 255 255 255
6.288832 1.481334 -9.556244 252 255 255
6.231230 1.478398 -9.119266 229 208 241
6.252816 1.495054 -9.079400 197 190 216
6.202360 1.448938 -8.996344 181 174 198
6.291588 1.496942 -8.861876 124 162 149
6.233983 1.499734 -6.250389 28 25 42
6.240935 1.473465 -6.198815 45 45 57
6.203789 1.426622 -6.090551 82 87 93
6.227439 1.418238 -5.843089 143 130 157
6.223456 1.469528 -5.770527 158 137 177
6.234891 1.447237 -5.013878 122 132 124
6.274489 1.480530 -4.929012 120 130 122
6.246953 1.411352 -4.896736 122 132 124
6.201503 1.498084 -4.749932 100 107 100
6.214715 1.497104 -4.679266 101 108 100
6.226030 1.498500 -4.599407 100 107 99
6.242523 1.495714 -4.486009 101 109 100
6.255803 1.496597 -4.397833 102 109 101
6.200543 1.434445 -4.206963 104 110 100
6.200086 1.430749 -4.105034 116 124 109
6.211625 1.499678 -4.007879 114 122 107
6.218176 1.496228 -3.983798 115 123 108
6.235602 1.489818 -3.897561 117 125 110
6.261596 1.494143 -3.779265 121 127 113
6.280798 1.488471 -3.676977 124 130 118
6.282718 1.493993 -3.565485 123 129 117
6.297233 1.494027 -3.466417 123 131 118
6.299603 1.487504 -3.351059 144 150 140
6.255605 1.560383 -12.400687 127 193 155
6.294170 1.597995 -12.301930 122 188 148
6.278475 1.599125 -12.295591 119 180 146
6.231522 1.557837 -9.802178 178 187 186
6.206976 1.540439 -9.705632 255 255 255
6.204241 1.541015 -9.617175 255 255 255
6.287354 1.594664 -9.201130 115 155 140
6.204251 1.532634 -9.104050 113 158 142
6.286110 1.598222 -9.034761 116 154 141
6.210081 1.504211 -8.983678 169 162 188
6.295350 1.599118 -8.851872 130 168 153
6.205711 1.599424 -8.704376 209 221 201
6.284853 1.599357 -8.672298 254 254 255
6.240135 1.597816 -6.245798 3 4 22
6.236993 1.593575 -6.197016 32 32 44
6.299761 1.548843 -5.770340 161 147 178
6.229504 1.592199 -5.612191 158 137 175
6.260870 1.591243 -5.596953 132 139 145
6.238205 1.564157 -4.921855 118 130 120
6.200529 1.577461 -4.802819 102 112 104
6.201953 1.592978 -4.760658 100 107 100
6.216873 1.592509 -4.692735 99 104 97
6.240685 1.598576 -4.568770 100 105 98
6.250326 1.592793 -4.468268 100 108 97
6.261410 1.599167 -4.370392 100 108 97
6.200135 1.567430 -4.210906 122 131 114
6.213392 1.572142 -4.114664 110 118 103
6.200666 1.553188 -4.026439 111 119 104
6.226737 1.539910 -3.915160 116 124 109
6.246270 1.577158 -3.830777 117 125 110
6.252427 1.591009 -3.799107 116 124 109
6.282842 1.594593 -3.686023 118 126 111
6.273447 1.583534 -3.597821 116 124 111
6.295719 1.585765 -3.454248 119 127 114
6.299070 1.597797 -3.343570 135 141 127
6.294542 1.653982 -12.342945 185 233 207
6.252507 1.629722 -12.201977 114 174 140
6.290072 1.661508 -12.104780 119 176 144
6.235384 1.692100 -12.006026 104 159 127
6.298527 1.698734 -11.966854 103 157 125
6.206850 1.624017 -11.703219 131 173 149
6.202922 1.635096 -11.619766 128 170 146
6.217041 1.641626 -11.535323 127 167 141
6.204036 1.655011 -11.411573 122 165 138
6.202809 1.658756 -11.323103 119 161 139
6.208400 1.664498 -11.201512 130 176 156
6.257213 1.670185 -11.107084 116 153 129
6.290353 1.671710 -11.003199 114 152 127
6.218472 1.674707 -10.901155 221 255 247
6.223016 1.679537 -10.803863 208 249 236
6.299824 1.679669 -10.700828 126 162 140
6.204833 1.659315 -10.616579 241 255 243
6.234434 1.664794 -10.500161 166 194 172
6.257461 1.666284 -10.408351 147 175 152
6.272828 1.662564 -10.304916 144 178 161
6.287494 1.658161 -10.206680 145 179 163
6.286040 1.654687 -10.101085 181 227 212
6.253899 1.648451 -10.010595 87 110 102
6.222971 1.615378 -9.914699 128 145 139
6.206105 1.604207 -9.875947 248 251 250
6.200877 1.642523 -9.719848 241 226 255
6.287307 1.683961 -9.400321 137 178 164
6.210489 1.672026 -9.301179 157 195 184
6.287387 1.684836 -9.211619 153 189 177
6.295368 1.684893 -9.107375 148 186 171
6.288353 1.680197 -9.000504 150 189 171
6.298729 1.674634 -8.900365 155 194 176
6.290420 1.659564 -8.802094 218 230 208
6.297291 1.651814 -8.703531 255 255 250
6.295381 1.657298 -8.601479 99 106 101
6.235867 1.633917 -8.500090 26 37 43
6.290421 1.671761 -8.401356 138 146 148
6.261942 1.671491 -8.300650 159 173 173
6.229946 1.677625 -8.203426 165 176 178
6.201173 1.677332 -8.101632 165 176 178
6.275647 1.676466 -8.002005 150 161 163
6.209020 1.676324 -7.903935 147 156 161
6.201358 1.676716 -7.893122 147 156 161
6.297316 1.672307 -7.786952 143 140 159
6.297922 1.668511 -7.699521 143 140 161
6.297798 1.668992 -7.590857 146 141 164
6.299123 1.648770 -7.472744 255 255 255
6.297814 1.647619 -7.396377 255 255 255
6.295363 1.649144 -7.294998 255 255 255
6.297011 1.663039 -7.191741 159 136 165
6.250348 1.670546 -7.001746 171 158 178
6.299561 1.662850 -6.915698 152 139 157
6.298423 1.663739 -6.897931 151 138 156
6.294549 1.669702 -6.742361 155 142 159
6.296323 1.665256 -6.697192 154 141 158
6.296050 1.668967 -6.598784 153 141 155
6.295883 1.671725 -6.499755 150 139 153
6.294433 1.676513 -6.387876 141 130 144
6.294234 1.648672 -6.298456 11 10 28
6.295219 1.637003 -6.193729 34 36 49
6.297816 1.671769 -6.092585 85 89 92
6.291730 1.677343 -5.994196 95 100 103
6.296554 1.680439 -5.887106 102 108 108
6.294235 1.678747 -5.740116 102 106 107
6.296211 1.683019 -5.685764 103 107 108
6.293296 1.698428 -5.578330 106 110 113
6.288882 1.683130 -5.480000 130 130 142
6.224559 1.688593 -5.396583 126 133 141
6.288844 1.649765 -5.141687 134 136 131
6.297496 1.658504 -5.048873 96 98 93
6.256415 1.647742 -4.999923 87 92 86
6.297280 1.654628 -4.894351 88 91 84
6.243810 1.653091 -4.797872 88 91 84
6.222243 1.653615 -4.697968 88 91 84
6.249585 1.654581 -4.599906 89 92 85
6.291174 1.658086 -4.491758 90 93 86
6.286960 1.661507 -4.395980 87 93 83
6.295608 1.667347 -4.291886 89 92 83
6.291846 1.669935 -4.185655 88 91 80
6.240082 1.610736 -4.019855 107 113 99
6.218118 1.615609 -3.915271 109 117 102
6.232378 1.645539 -3.845694 108 116 103
6.274896 1.628711 -3.714405 109 117 102
6.299511 1.666862 -3.629191 92 100 85
6.290841 1.685356 -3.597388 91 99 86
6.296538 1.673278 -3.454467 93 101 88
6.287841 1.652910 -3.397617 130 134 120
6.202657 1.709262 -12.325372 135 179 156
6.204020 1.732547 -12.247007 175 214 196
6.201736 1.732725 -12.125792 168 210 190
6.216883 1.715230 -12.035022 96 147 116
6.212915 1.713927 -11.907260 100 154 122
6.209943 1.728022 -11.825781 155 195 171
6.210047 1.725307 -11.713749 155 193 170
6.211011 1.721613 -11.603523 151 189 166
6.211393 1.718771 -11.500299 148 186 163
6.202806 1.717468 -11.454009 146 184 161
6.212338 1.713162 -11.306291 141 176 154
6.213079 1.710157 -11.214394 139 177 154
6.213209 1.708009 -11.128249 140 175 153
6.206617 1.703604 -11.004929 141 176 156
6.237695 1.701567 -10.915392 134 169 149
6.252133 1.700069 -10.836104 136 171 151
6.200051 1.702957 -10.600756 255 255 255
6.206930 1.701039 -10.505658 245 255 248
6.200502 1.706332 -10.405286 230 243 229
6.212081 1.714560 -10.335714 210 227 214
6.266548 1.706521 -10.202322 251 255 251
6.274852 1.702500 -10.168624 247 252 248
6.270911 1.717122 -10.007179 90 109 103
6.266488 1.703418 -9.979425 95 114 110
6.298067 1.703089 -9.509270 218 200 231
6.254377 1.700659 -9.422263 139 166 161
6.236467 1.700126 -9.313212 138 165 160
6.208165 1.719102 -9.207010 105 135 123
6.204683 1.738466 -9.199121 105 135 123
6.250699 1.700324 -6.070925 92 97 101
6.258527 1.703599 -5.985593 116 128 126
6.230001 1.700054 -5.843323 83 87 88
6.200627 1.700305 -5.788201 82 86 87
6.291085 1.702430 -5.690661 105 113 115
6.262536 1.700386 -5.577430 104 108 111
6.243175 1.707909 -5.437556 131 135 144
6.273194 1.709922 -5.005028 107 109 106
6.270892 1.701190 -4.997296 102 106 102
6.293015 1.711063 -4.701399 88 90 87
6.288933 1.707458 -4.645418 87 89 86
6.287394 1.700459 -4.594429 85 87 84
6.293376 1.750954 -4.409624 88 94 90
6.295901 1.742600 -4.391125 87 92 86
6.374217 -1.400522 -6.203967 98 113 118
6.300942 -1.406029 -6.002414 93 97 96
6.312538 -1.404551 -5.902354 95 99 98
6.308576 -1.402514 -5.802541 87 93 91
6.327397 -1.401783 -5.701465 86 92 90
6.329375 -1.401410 -5.600509 88 94 90
6.357164 -1.400692 -5.501925 91 97 95
6.330365 -1.400044 -5.419916 88 97 92
6.399905 -1.400578 -5.352526 87 97 89
6.326162 -1.303909 -11.331139 118 165 157
6.311750 -1.357800 -11.210134 137 194 179
6.303057 -1.302078 -11.194093 49 86 68
6.351988 -1.352149 -11.095098 105 158 142
6.348987 -1.377917 -10.978693 98 140 128
6.311198 -1.323364 -10.814521 114 150 140
6.301008 -1.316268 -10.795390 110 146 136
6.366251 -1.300314 -10.616633 103 136 125
6.393700 -1.300752 -10.574274 73 105 94
6.367908 -1.302268 -10.473212 69 101 88
6.322228 -1.301095 -10.360174 79 111 96
6.313125 -1.347391 -10.296709 80 112 97
6.307133 -1.314984 -10.198999 110 147 130
6.301197 -1.318013 -10.081617 104 136 121
6.300273 -1.315016 -9.990301 104 135 120
6.307079 -1.300190 -9.885711 64 90 79
6.347872 -1.304523 -9.795689 66 92 81
6.393440 -1.308692 -9.695074 73 95 85
6.301370 -1.329461 -9.585332 112 133 124
6.319554 -1.316212 -9.487747 87 104 98
6.397135 -1.324089 -9.384006 98 113 106
6.306456 -1.367567 -9.292442 75 96 84
6.306351 -1.367214 -9.191853 74 94 83
6.306458 -1.366418 -9.097542 74 91 83
6.305697 -1.365107 -8.993978 68 83 76
6.300168 -1.367562 -8.895259 83 96 89
6.302241 -1.379987 -8.799924 64 81 73
6.311209 -1.321424 -8.600933 78 99 92
6.325592 -1.305665 -8.589409 79 100 93
6.303078 -1.319608 -8.496144 62 61 66
6.301622 -1.372810 -8.393125 192 193 195
6.300683 -1.370771 -8.289278 194 196 195
6.300850 -1.378586 -8.000230 148 150 149
6.301156 -1.379714 -7.904665 149 151 150
6.300406 -1.379323 -7.800466 191 192 194
6.300250 -1.385166 -7.704725 192 193 195
6.302177 -1.386782 -7.603099 186 187 189
6.301685 -1.386786 -7.500283 191 193 192
6.305120 -1.388411 -7.401503 156 158 157
6.306100 -1.388803 -7.300655 184 182 185
6.304917 -1.378249 -7.201240 210 208 211
6.309321 -1.385989 -7.103103 198 196 199
6.313551 -1.387900 -7.000174 212 210 213
6.304396 -1.388245 -6.900369 212 213 215
6.393940 -1.382444 -6.802451 215 210 214
6.319115 -1.386998 -6.700785 196 191 197
6.306614 -1.365015 -6.602816 217 199 215
6.306523 -1.366979 -6.500014 243 219 241
6.319118 -1.365242 -6.401200 243 215 240
6.317567 -1.369983 -6.300622 242 216 241
6.321557 -1.300157 -6.205213 129 128 144
6.331997 -1.306671 -6.107224 79 72 84
6.313239 -1.360988 -6.001334 101 85 98
6.379394 -1.353604 -5.900885 104 86 102
6.381444 -1.356888 -5.800975 101 85 98
6.311943 -1.358286 -5.701300 96 82 95
6.344040 -1.354473 -5.600078 97 84 94
6.397833 -1.349539 -5.504672 99 87 97
6.331177 -1.327979 -5.400779 78 67 75
6.346937 -1.321770 -5.300701 62 52 60
6.309273 -1.317350 -5.202693 62 53 58
6.321244 -1.315218 -5.101230 66 57 62
6.364652 -1.316459 -5.001538 61 52 57
6.307159 -1.312898 -4.901751 59 50 55
6.359738 -1.319435 -4.801626 61 52 57
6.332915 -1.317992 -4.701421 62 51 57
6.366981 -1.319551 -4.603306 59 50 55
6.306434 -1.304598 -4.523430 61 52 57
6.348860 -1.309789 -4.401718 72 61 65
6.317105 -1.309091 -4.303799 72 61 65
6.350914 -1.309694 -4.204062 76 65 71
6.317238 -1.300570 -4.101924 46 40 40
6.391282 -1.301532 -4.009195 46 40 40
6.364575 -1.306943 -3.905517 44 38 38
6.385046 -1.309846 -3.820046 44 40 37
6.385282 -1.307299 -3.702697 51 47 44
6.390843 -1.307014 -3.616124 49 45 42
6.399058 -1.316850 -3.517380 40 37 30
6.396817 -1.305700 -3.417810 33 30 23
6.390811 -1.301020 -3.384348 32 29 22
6.386779 -1.302376 -3.259881 34 29 25
6.384223 -1.301332 -3.162054 19 11 8
6.384790 -1.307149 -3.036579 24 13 9
6.394488 -1.311839 -2.967285 24 15 10
6.385666 -1.306373 -2.833407 33 20 14
6.355485 -1.294259 -11.353018 68 115 107
6.332149 -1.207659 -11.202589 50 81 66
6.302585 -1.209287 -11.196233 51 88 70
6.304204 -1.258986 -10.843742 110 158 142
6.357467 -1.297514 -10.709246 76 108 97
6.303980 -1.289353 -10.696023 54 82 70
6.308343 -1.282857 -10.583767 76 110 94
6.308381 -1.283853 -10.491621 78 111 95
6.301132 -1.291217 -10.384833 79 107 95
6.303925 -1.287457 -10.294912 52 73 64
6.300403 -1.296421 -9.900188 63 89 78
6.316909 -1.298833 -9.863816 64 90 79
6.311560 -1.281404 -9.486430 74 94 85
6.375302 -1.213659 -9.380396 58 78 69
6.341167 -1.254744 -9.202102 95 106 102
6.360397 -1.209829 -9.165826 95 106 102
6.312513 -1.284951 -9.038719 131 140 139
6.357465 -1.212733 -8.983320 129 138 137
6.301459 -1.271747 -8.522390 130 144 144
6.335350 -1.294770 -8.498064 62 63 67
6.307890 -1.289273 -6.201549 130 129 147
6.311545 -1.206468 -6.144934 56 48 59
6.300144 -1.253206 -6.083434 57 61 62
6.301310 -1.299004 -4.761564 75 64 68
6.338802 -1.200607 -4.625430 90 78 78
6.300641 -1.296918 -4.508391 61 50 56
6.300692 -1.206781 -4.466743 58 48 47
6.316272 -1.298531 -4.302984 85 73 76
6.314483 -1.299214 -4.205451 79 64 67
6.302877 -1.297710 -4.108813 46 40 40
6.314725 -1.285919 -4.001172 42 37 34
6.395157 -1.213251 -3.947138 57 52 48
6.305573 -1.276261 -3.805026 46 41 38
6.367202 -1.288455 -3.703914 53 49 46
6.315418 -1.276573 -3.601954 50 45 42
6.383855 -1.297632 -3.519525 41 38 33
6.378399 -1.291808 -3.404843 30 27 20
6.395629 -1.291442 -3.319476 27 22 16
6.374705 -1.243904 -3.200326 24 13 7
6.388521 -1.233267 -3.181906 22 13 8
6.392828 -1.234264 -3.025001 34 21 20
6.338793 -1.299959 -2.989570 40 32 29
6.383580 -1.292720 -2.810083 72 64 64
6.316627 -1.195567 -11.205841 53 90 72
6.302195 -1.179197 -11.198966 58 97 78
6.333779 -1.165390 -9.442799 61 72 69
6.330593 -1.167536 -9.209200 68 80 76
6.372458 -1.108411 -9.127609 68 80 76
6.365967 -1.163769 -9.009525 116 125 124
6.348168 -1.185344 -8.997242 127 139 135
6.304349 -1.115177 -6.134683 53 45 56
6.352306 -1.103290 -4.620048 194 201 193
6.330567 -1.112223 -4.462744 100 100 100
6.304816 -1.141072 -4.202684 134 136 133
6.305971 -1.102991 -4.103659 133 135 132
6.330026 -1.111124 -4.025479 141 142 137
6.386950 -1.123846 -3.907623 52 47 43
6.351142 -1.100437 -3.803765 124 127 120
6.325887 -1.102191 -3.722239 154 155 149
6.301367 -1.116819 -3.609186 118 121 112
6.309114 -1.117086 -3.560712 117 120 111
6.314203 -1.105112 -3.494619 113 118 111
6.331989 -1.119064 -3.205838 110 114 113
6.398009 -1.108982 -3.148064 110 116 116
6.398035 -1.075697 -9.078300 67 79 75
6.308200 -1.006857 -6.147731 46 41 48
6.385500 -1.000552 -4.634634 181 185 178
6.335485 -1.000536 -4.513067 122 124 123
6.309558 -1.013738 -4.484788 135 137 136
6.306202 -1.007744 -4.207495 177 184 177
6.307673 -1.011144 -4.106687 144 145 140
6.343799 -1.004552 -4.015365 145 146 141
6.391804 -1.018145 -3.900116 145 146 141
6.325059 -1.001342 -3.814289 129 135 125
6.363166 -1.005375 -3.722772 126 129 120
6.328372 -1.014318 -3.658960 119 122 113
6.314497 -1.072860 -3.587447 116 122 112
6.300181 -1.007304 -3.410556 128 133 126
6.311260 -1.022999 -3.351773 123 129 122
6.349981 -1.059911 -3.208000 109 115 113
6.364901 -1.067337 -3.175965 111 117 115
6.317407 -0.957934 -9.004898 150 150 148
6.306117 -0.933997 -8.998218 89 87 92
6.303540 -0.994922 -6.200332 83 83 93
6.301844 -0.921299 -6.138430 79 80 85
6.358792 -0.901642 -4.617846 197 207 198
6.304070 -0.908881 -4.501636 111 113 110
6.306222 -0.906779 -4.470063 116 118 115
6.304223 -0.906666 -4.212980 179 186 179
6.308380 -0.905642 -4.105952 146 148 143
6.343264 -0.913812 -4.010481 145 147 142
6.397081 -0.917715 -3.917299 150 151 146
6.325127 -0.954896 -3.814570 130 136 126
6.346521 -0.967791 -3.781917 128 134 124
6.315914 -0.904120 -3.617427 153 153 145
6.327206 -0.925283 -3.590306 143 148 141
6.361018 -0.993190 -3.496853 118 123 119
6.387832 -0.842914 -8.907679 88 86 91
6.306657 -0.806099 -6.149480 55 58 63
6.358868 -0.804311 -4.642395 198 210 200
6.302965 -0.801131 -4.501004 121 123 120
6.308046 -0.808858 -4.476640 121 123 120
6.304128 -0.806419 -4.223837 178 185 177
6.322143 -0.800786 -4.149344 148 151 142
6.333109 -0.833145 -4.082411 147 150 140
6.387879 -0.896188 -3.942070 147 149 144
6.321657 -0.897817 -3.871313 159 162 151
6.389729 -0.823439 -3.751482 163 169 159
6.396025 -0.871942 -3.696779 163 169 159
6.315055 -0.702700 -6.165335 43 44 49
6.301051 -0.702185 -4.860012 112 114 113
6.373146 -0.707230 -4.637190 197 209 197
6.341537 -0.710299 -4.563833 123 125 122
6.314794 -0.775125 -4.494483 122 124 121
6.307632 -0.788143 -4.201903 147 150 143
6.315851 -0.793343 -4.179106 148 151 144
6.322799 -0.716100 -4.024890 228 209 202
6.331842 -0.752775 -3.933538 207 205 190
6.349287 -0.783049 -3.868412 187 188 175
6.354477 -0.710883 -3.784864 166 172 158
6.392292 -0.736629 -3.696597 167 173 159
6.300848 -0.604070 -6.174791 37 36 44
6.390802 -0.628218 -4.690849 124 126 123
6.354513 -0.685561 -4.597349 123 125 122
6.304987 -0.606591 -4.201521 178 186 175
6.311695 -0.683335 -4.103385 184 186 170
6.310040 -0.618710 -4.074250 171 174 163
6.342966 -0.660065 -3.979614 172 175 164
6.346513 -0.695619 -3.871277 172 175 164
6.368085 -0.607443 -3.709070 173 182 165
6.383913 -0.615977 -3.638570 173 181 166
6.399441 -0.625446 -3.562293 173 180 164
6.347639 -0.611067 -3.412873 100 112 100
6.364436 -0.611961 -3.330509 77 90 80
6.398398 -0.614051 -3.242065 86 99 89
6.390099 -0.601427 -3.163742 76 92 82
6.391860 -0.601471 -3.077159 87 100 93
6.310111 -0.502944 -6.202695 58 59 64
6.300344 -0.588629 -6.175071 37 36 44
6.323875 -0.526239 -4.617947 150 155 151
6.341791 -0.544399 -4.592844 151 156 152
6.317826 -0.513458 -4.203240 175 182 174
6.380429 -0.516129 -4.149264 168 178 169
6.366110 -0.589174 -4.091323 170 180 171
6.318438 -0.552311 -3.909826 174 182 167
6.309654 -0.539408 -3.808057 130 138 123
6.317580 -0.513056 -3.713810 130 138 123
6.330229 -0.513777 -3.634548 131 139 124
6.340830 -0.500404 -3.538080 127 135 122
6.342844 -0.513660 -3.469810 117 125 112
6.347367 -0.506203 -3.326653 88 100 86
6.393784 -0.510155 -3.215545 86 99 89
6.388711 -0.507100 -3.149520 77 90 81
6.391857 -0.501775 -3.071804 86 99 92
6.301326 -0.405407 -6.203883 90 90 102
6.302557 -0.405296 -6.166940 40 38 49
6.317235 -0.463336 -4.808235 141 146 142
6.399506 -0.416423 -4.730251 205 215 204
6.371530 -0.434430 -4.691522 205 215 204
6.300586 -0.447449 -4.252029 179 187 174
6.315374 -0.404097 -4.114722 148 156 143
6.329454 -0.406725 -4.001075 150 156 144
6.311214 -0.400787 -3.930371 137 143 131
6.310604 -0.400231 -3.812173 133 142 125
6.321203 -0.415235 -3.730586 134 143 126
6.330996 -0.415955 -3.638271 135 144 127
6.336157 -0.404214 -3.514761 129 137 122
6.334671 -0.418498 -3.428150 120 128 113
6.343752 -0.403341 -3.307601 90 100 89
6.392651 -0.401975 -3.209366 95 106 98
6.389182 -0.410421 -3.147497 84 97 90
6.393249 -0.419806 -3.081762 94 105 99
6.311271 -0.302249 -6.205555 36 36 44
6.316319 -0.315767 -6.188218 36 35 41
6.307101 -0.306824 -4.848338 178 186 171
6.323549 -0.308319 -4.671259 154 160 156
6.354775 -0.336953 -4.564879 153 160 153
6.306511 -0.347273 -4.303995 212 222 213
6.348132 -0.348377 -4.261598 211 223 209
6.313269 -0.314915 -4.104969 151 159 144
6.333116 -0.311658 -4.011068 152 158 144
6.310585 -0.308081 -3.923107 140 146 132
6.314152 -0.305835 -3.827957 139 146 128
6.333301 -0.307069 -3.719405 139 146 128
6.340311 -0.306927 -3.610953 138 145 127
6.339237 -0.301733 -3.530298 136 142 128
6.334295 -0.315945 -3.426368 120 126 112
6.343025 -0.315363 -3.303914 99 107 94
6.391583 -0.311742 -3.203500 107 117 109
6.389653 -0.313741 -3.145475 95 106 100
6.394031 -0.319123 -3.084434 103 113 109
6.310151 -0.206230 -6.202988 38 36 47
6.306497 -0.205583 -6.158923 40 44 43
6.321506 -0.219830 -5.251636 126 130 129
6.328243 -0.263590 -5.080800 124 128 127
6.325934 -0.255469 -4.927633 183 185 180
6.375625 -0.272910 -4.851962 155 161 157
6.364446 -0.206950 -4.774156 168 176 163
6.305054 -0.206587 -4.126232 156 162 148
6.331930 -0.203880 -4.003432 159 165 151
6.309710 -0.215288 -3.913755 147 153 139
6.326181 -0.200308 -3.818862 146 153 135
6.341207 -0.208057 -3.756770 145 152 134
6.345457 -0.206391 -3.636292 147 151 134
6.339734 -0.201537 -3.532886 142 148 134
6.330331 -0.215350 -3.406238 125 131 117
6.342636 -0.209400 -3.302072 101 109 98
6.376163 -0.201368 -3.212326 111 120 115
6.388979 -0.203974 -3.188732 114 123 118
6.394420 -0.219025 -3.083094 109 118 115
6.387333 -0.115250 -8.700959 96 165 144
6.303672 -0.102334 -8.659099 100 173 151
6.305054 -0.101753 -8.520207 132 196 170
6.309112 -0.100923 -6.262385 150 156 154
6.318313 -0.102503 -6.173342 41 45 46
6.363392 -0.102292 -6.098685 140 148 150
6.345573 -0.100054 -5.936288 121 126 129
6.385995 -0.102353 -5.891377 140 147 140
6.380396 -0.128545 -5.724553 177 183 172
6.301996 -0.154936 -5.640408 140 147 140
6.343546 -0.174515 -5.430373 122 126 125
6.310353 -0.112311 -5.319367 177 184 177
6.387844 -0.133049 -5.213435 191 194 185
6.378286 -0.109301 -5.128796 171 181 170
6.301386 -0.167095 -4.933141 190 193 184
6.312871 -0.142031 -4.812361 110 116 112
6.303860 -0.133235 -4.794738 109 116 109
6.306590 -0.148869 -4.507428 171 180 161
6.301560 -0.141311 -4.415767 176 181 161
6.335044 -0.105024 -4.305602 178 183 163
6.303029 -0.145623 -4.276195 145 151 141
6.303689 -0.101382 -4.118647 164 171 155
6.323053 -0.108884 -4.024812 166 173 157
6.308329 -0.138161 -3.900398 156 160 143
6.314398 -0.107369 -3.828864 155 158 139
6.335761 -0.100987 -3.731024 155 158 139
6.335267 -0.107295 -3.658937 155 158 141
6.333175 -0.121180 -3.500101 146 150 135
6.330525 -0.105485 -3.486840 147 151 136
6.342248 -0.103437 -3.300231 100 110 101
6.375454 -0.110999 -3.208603 111 122 116
6.387910 -0.113159 -3.182856 114 125 119
6.394809 -0.118927 -3.081754 111 120 119
6.398073 -0.113031 -2.970257 164 172 159
6.357790 -0.010581 -9.482397 132 190 175
6.319201 -0.034793 -8.717021 132 190 166
6.302043 -0.040036 -8.603490 164 249 230
6.302972 -0.035227 -8.599073 167 252 233
6.397075 -0.015138 -6.310733 136 142 140
6.339484 -0.024641 -6.240526 134 140 138
6.322181 -0.033038 -6.171324 176 182 180
6.311083 -0.009634 -6.098131 141 151 152
6.382620 -0.059401 -5.952470 120 124 127
6.302549 -0.070592 -5.872024 119 125 125
6.328244 -0.079905 -5.766054 180 186 186
6.308970 -0.090962 -5.698012 153 160 160
6.324064 -0.054938 -5.573633 195 205 196
6.330373 -0.000094 -4.304740 182 187 167
6.387642 -0.011765 -4.206560 185 190 168
6.338775 -0.005641 -4.154874 135 139 138
6.321270 -0.000821 -4.015230 174 178 161
6.340713 -0.006402 -3.913413 174 178 161
6.300268 -0.015903 -3.828021 163 164 146
6.315728 -0.008192 -3.705036 161 162 144
6.324344 -0.014187 -3.606343 158 161 142
6.323753 -0.002185 -3.529813 155 158 141
6.320013 -0.007475 -3.434266 145 151 137
6.329312 -0.013977 -3.318245 112 120 112
6.374302 -0.002518 -3.202415 113 122 117
6.387141 -0.003781 -3.178805 115 124 119
6.394806 -0.019039 -3.076397 111 120 119
6.399560 -0.026911 -2.974872 168 172 157
6.399284 -0.097527 -2.899690 155 163 150
6.351888 0.095248 -9.621748 155 201 152
6.359825 0.090907 -9.599572 156 202 152
6.391960 0.016355 -9.494199 193 236 184
6.311498 0.094622 -6.172705 79 85 85
6.309265 0.033695 -4.771448 164 177 167
6.314209 0.089117 -4.310624 179 184 164
6.366806 0.092899 -4.204238 186 189 172
6.334260 0.085496 -4.143267 139 141 138
6.320717 0.092513 -4.010402 178 180 166
6.339181 0.089032 -3.904602 179 181 167
6.300914 0.015690 -3.834030 166 167 149
6.301007 0.086491 -3.703996 161 162 146
6.309070 0.099473 -3.604854 159 160 144
6.312451 0.097905 -3.549081 156 159 142
6.317480 0.094320 -3.421673 144 150 136
6.319265 0.092305 -3.350072 128 134 120
6.360405 0.088658 -3.219137 104 114 105
6.386438 0.087443 -3.175071 114 125 119
6.394805 0.081038 -3.071037 110 121 117
6.373342 0.106885 -9.572667 131 164 121
6.301312 0.195965 -6.200609 77 75 88
6.310083 0.195444 -6.170762 83 88 92
6.300342 0.105861 -4.758823 145 157 148
6.302223 0.175946 -4.327413 179 183 168
6.328327 0.186110 -4.228039 159 160 154
6.332709 0.193015 -4.140676 141 143 142
6.320168 0.186185 -4.005579 174 178 164
6.339275 0.185091 -3.901750 176 180 166
6.353054 0.184352 -3.831584 178 180 166
6.302240 0.108663 -3.708214 160 161 143
6.300394 0.148523 -3.633842 158 161 144
6.306460 0.196701 -3.520248 155 157 143
6.314512 0.196674 -3.406905 143 149 135
6.318036 0.196651 -3.343934 126 132 118
6.358076 0.196852 -3.206489 104 114 105
6.399654 0.197131 -3.152813 116 127 123
6.395195 0.181323 -3.069694 110 121 117
6.322892 0.294831 -6.205462 46 45 51
6.321356 0.295380 -6.193781 58 57 63
6.324334 0.298789 -4.215605 159 159 157
6.331629 0.299827 -4.186602 145 148 141
6.320942 0.295783 -4.004882 173 175 162
6.332855 0.296905 -3.933488 174 176 163
6.353924 0.298454 -3.830917 175 177 164
6.365360 0.299809 -3.747258 175 177 163
6.300479 0.296692 -3.600483 139 140 126
6.302491 0.296676 -3.501157 153 155 141
6.307873 0.298060 -3.452001 151 153 139
6.313055 0.299524 -3.399706 145 149 135
6.356972 0.287353 -3.200609 105 115 106
6.398958 0.289045 -3.149069 115 126 122
6.395584 0.281609 -3.068352 109 120 114
6.323429 0.393662 -6.205837 50 50 58
6.309951 0.397209 -6.180216 73 73 81
6.320223 0.397001 -4.202965 158 158 158
6.336008 0.392776 -4.154040 145 146 150
6.321526 0.389844 -4.004004 170 173 162
6.333475 0.392572 -3.932620 171 174 163
6.354075 0.396477 -3.828069 173 175 164
6.366578 0.399546 -3.748417 172 174 163
6.300269 0.312743 -3.605590 139 139 127
6.301896 0.399368 -3.541591 143 149 135
6.305956 0.399834 -3.442648 150 152 139
6.316911 0.388277 -3.338441 128 131 120
6.356960 0.395866 -3.200876 105 115 106
6.398913 0.399249 -3.149301 115 126 120
6.395682 0.382020 -3.063993 108 119 115
6.316850 0.498151 -6.218175 44 44 56
6.303442 0.494420 -6.193318 65 65 77
6.319479 0.452470 -4.200331 158 158 158
6.331684 0.497654 -4.190420 145 145 143
6.309764 0.487325 -4.000627 152 152 144
6.325221 0.488215 -3.908897 152 152 144
6.330065 0.488574 -3.875919 152 152 144
6.367291 0.499440 -3.747576 170 173 162
6.384276 0.490764 -3.611734 171 173 162
6.301145 0.486690 -3.533615 144 150 136
6.305646 0.484496 -3.441177 148 152 138
6.317374 0.492493 -3.340955 124 130 118
6.334170 0.499265 -3.258465 103 113 102
6.399655 0.490684 -3.154152 116 127 121
6.396072 0.482376 -3.062649 109 118 115
6.326624 0.599359 -6.227189 66 65 74
6.303017 0.571774 -6.198876 64 63 81
6.312399 0.595324 -4.306831 146 147 141
6.343455 0.598705 -4.228211 146 147 141
6.330920 0.594455 -4.142778 145 144 149
6.304457 0.592436 -4.018692 151 150 145
6.319515 0.595659 -3.924645 152 151 146
6.357769 0.598590 -3.800418 152 152 145
6.379000 0.598499 -3.768938 153 151 147
6.300027 0.589594 -3.615944 135 137 126
6.300872 0.591514 -3.527321 142 148 134
6.305936 0.585775 -3.442667 149 151 140
6.319110 0.595851 -3.349971 123 131 120
6.359714 0.593067 -3.216831 104 114 105
6.386775 0.597690 -3.179098 113 124 116
6.396461 0.582732 -3.061306 109 118 113
6.339126 0.698485 -6.245886 67 63 78
6.312020 0.662297 -6.197819 89 97 100
6.303987 0.695474 -4.323209 144 145 139
6.317137 0.698917 -4.277319 143 144 138
6.386425 0.695618 -4.125336 146 147 141
6.302960 0.698811 -4.049616 150 149 145
6.320591 0.692547 -3.922109 152 151 146
6.346660 0.698496 -3.804519 152 151 146
6.385249 0.696839 -3.779850 154 150 151
6.375462 0.601934 -3.699569 154 150 151
6.301382 0.696032 -3.525135 142 148 136
6.300572 0.697019 -3.492030 148 151 142
6.320211 0.699046 -3.355746 121 127 117
6.361642 0.699565 -3.227902 105 115 106
6.387179 0.688242 -3.181822 112 124 114
6.397531 0.682304 -3.067008 108 119 113
6.332316 0.798021 -6.246197 57 50 68
6.304321 0.782724 -6.192228 87 85 99
6.300474 0.795015 -4.302730 141 142 136
6.313109 0.798855 -4.262796 143 144 138
6.316533 0.793615 -4.109741 140 141 135
6.307653 0.797015 -4.024673 153 154 148
6.321223 0.792500 -3.915308 155 154 149
6.332945 0.798328 -3.840259 154 153 148
6.348666 0.793134 -3.726407 152 151 146
6.304911 0.788737 -3.625983 132 134 125
6.301806 0.783130 -3.523313 141 147 135
6.301560 0.796093 -3.496816 146 149 138
6.330292 0.790665 -3.324783 106 116 107
6.340162 0.796304 -3.291068 100 110 101
6.387887 0.796473 -3.186389 109 121 111
6.398697 0.781412 -3.073721 108 117 112
6.321535 0.888618 -9.220304 117 115 131
6.300065 0.898129 -8.618563 33 25 33
6.318063 0.898915 -8.550047 184 227 207
6.399881 0.897389 -6.316685 6 7 11
6.394999 0.899914 -6.298763 3 4 6
6.319262 0.865199 -6.199641 108 109 125
6.304356 0.893515 -4.323428 138 141 134
6.303591 0.898010 -4.277700 138 139 134
6.317614 0.896611 -4.192880 140 141 136
6.354385 0.890318 -4.031065 143 142 137
6.320930 0.891887 -3.924442 144 145 140
6.325957 0.896709 -3.881988 144 145 140
6.349861 0.899732 -3.716747 145 146 141
6.301211 0.887405 -3.642030 131 132 124
6.302548 0.894829 -3.501608 145 148 139
6.315838 0.895187 -3.414248 134 142 131
6.342210 0.899873 -3.302216 100 110 101
6.376844 0.898619 -3.220100 106 118 108
6.389031 0.885878 -3.193431 110 122 112
6.381336 0.898934 -3.092874 109 119 111
6.301748 0.900557 -8.625189 15 15 17
6.394752 0.997849 -8.549284 145 138 154
6.394058 0.998015 -6.314309 26 31 35
6.319897 0.993676 -6.299743 33 38 42
6.396230 0.942836 -6.192494 6 6 14
6.300150 0.971937 -4.300210 136 137 131
6.314549 0.996986 -4.227551 136 137 132
6.327217 0.999365 -4.132075 137 138 132
6.335091 0.997272 -4.060394 139 140 135
6.313786 0.999969 -3.998583 140 141 136
6.335280 0.992296 -3.836752 142 143 138
6.341386 0.997952 -3.794587 142 143 138
6.305059 0.997052 -3.605640 129 130 122
6.303538 0.993227 -3.506405 144 147 138
6.317198 0.995656 -3.421161 134 142 131
6.334092 0.995581 -3.344985 104 116 104
6.366535 0.998265 -3.256091 101 113 103
6.389993 0.975108 -3.199402 109 121 111
6.382129 0.997814 -3.095566 110 120 112
6.305931 1.022795 -8.760765 255 252 255
6.318987 1.086219 -8.504391 231 204 239
6.374563 1.075626 -8.498829 238 207 251
6.396764 1.004749 -6.321660 0 2 5
6.391284 1.088250 -6.294381 122 112 139
6.328294 1.007440 -6.060130 118 122 125
6.304951 1.044543 -5.917924 127 137 138
6.327057 1.071403 -5.854039 129 142 135
6.304805 1.089874 -4.323876 125 130 124
6.309646 1.096075 -4.210149 133 134 128
6.317891 1.095379 -4.142809 133 134 128
6.325536 1.095284 -4.069967 135 136 130
6.355394 1.049319 -3.999429 138 139 134
6.334049 1.094660 -3.876033 138 140 135
6.352584 1.098873 -3.749894 139 141 136
6.300242 1.083029 -3.608641 129 130 122
6.304529 1.091286 -3.511209 140 146 136
6.318559 1.095674 -3.428082 123 133 122
6.335995 1.097109 -3.355102 105 117 105
6.356988 1.095240 -3.294371 101 115 102
6.388955 1.081757 -3.189914 102 115 105
6.382921 1.096505 -3.098260 111 121 113
6.314380 1.187637 -8.661535 237 223 250
6.362097 1.107935 -8.545820 239 207 254
6.378916 1.158946 -6.206999 130 120 147
6.395717 1.169482 -6.196793 131 121 164
6.304568 1.192925 -4.322788 119 124 117
6.302790 1.190714 -4.229544 127 130 123
6.306560 1.198004 -4.198036 128 131 124
6.316753 1.195101 -4.082985 132 133 127
6.350188 1.185505 -3.984148 137 135 136
6.344294 1.198172 -3.830770 136 137 132
6.357598 1.196831 -3.747869 136 138 133
6.373188 1.193782 -3.669405 137 139 134
6.305070 1.189566 -3.513839 139 145 135
6.319705 1.195516 -3.433923 126 137 123
6.337277 1.198826 -3.361975 104 116 104
6.380083 1.198440 -3.239630 108 122 109
6.389511 1.195687 -3.187531 102 116 103
6.383076 1.136281 -3.097727 112 123 115
6.361682 1.298236 -8.807437 140 152 155
6.325085 1.243548 -8.753849 235 226 254
6.379393 1.213695 -8.692242 208 201 219
6.323323 1.202359 -6.143003 129 119 146
6.334825 1.285598 -6.019691 157 141 180
6.304181 1.299399 -4.321268 109 116 108
6.300070 1.281961 -4.213471 121 123 118
6.303961 1.290264 -4.181407 120 122 117
6.308072 1.297121 -4.097312 119 124 117
6.337648 1.293604 -3.984356 126 128 125
6.346814 1.299568 -3.820640 128 133 127
6.353211 1.291280 -3.779266 130 132 127
6.377114 1.297914 -3.659489 133 136 129
6.306289 1.286698 -3.519743 136 142 132
6.313244 1.299430 -3.479021 135 141 131
6.347846 1.293847 -3.333135 101 113 101
6.369310 1.295191 -3.272467 105 119 106
6.389973 1.290629 -3.185544 105 119 106
6.362011 1.293601 -3.083716 133 138 131
6.381307 1.399716 -8.902917 124 160 150
6.317062 1.398612 -8.853763 124 160 150
6.338898 1.332137 -6.012295 146 125 168
6.340289 1.364202 -5.914114 155 135 173
6.371278 1.385948 -5.869355 171 145 190
6.305320 1.389091 -4.817681 106 113 105
6.335038 1.395681 -4.780438 108 116 103
6.314925 1.393049 -4.681590 124 117 109
6.303854 1.393425 -4.319965 104 112 101
6.312113 1.397218 -4.211745 105 110 103
6.302170 1.384955 -4.115076 117 121 114
6.303612 1.397223 -4.072393 116 120 113
6.327412 1.388304 -3.987273 118 121 114
6.343096 1.393744 -3.855321 122 127 120
6.356950 1.395761 -3.772009 125 128 121
6.372162 1.396891 -3.689047 128 130 125
6.307676 1.399577 -3.526458 133 139 127
6.314651 1.396987 -3.485993 130 136 124
6.348277 1.397030 -3.335657 99 111 97
6.380500 1.393260 -3.242698 109 121 109
6.374222 1.399858 -3.197708 104 118 103
6.377854 1.394288 -3.054545 127 139 127
6.338025 1.492249 -9.702120 248 251 255
6.350073 1.499010 -9.615583 255 255 255
6.344871 1.473078 -9.548646 255 255 255
6.309557 1.450394 -9.103884 244 212 254
6.372942 1.402800 -8.902290 124 160 150
6.397528 1.499967 -8.876452 122 158 146
6.344774 1.424860 -5.905504 157 130 175
6.397036 1.445341 -5.833190 162 136 167
6.363467 1.464772 -5.782236 167 139 185
6.318085 1.400509 -4.769813 106 113 105
6.301978 1.494883 -4.468309 102 110 97
6.302645 1.491041 -4.316181 98 105 97
6.307547 1.497608 -4.239502 100 106 96
6.300850 1.498696 -4.106570 107 115 104
6.316559 1.499091 -4.052008 111 117 107
6.337329 1.450996 -3.992402 117 120 113
6.346842 1.499441 -3.850026 113 119 109
6.367933 1.496343 -3.722349 118 123 116
6.384039 1.498955 -3.637724 120 125 118
6.301181 1.498744 -3.567507 126 132 120
6.315616 1.494821 -3.490794 125 131 119
6.349116 1.499287 -3.340354 99 109 98
6.381247 1.498335 -3.247326 105 117 103
6.373388 1.496988 -3.187503 102 116 103
6.363653 1.498001 -3.098455 128 138 129
6.385467 1.574567 -12.405111 111 180 135
6.309773 1.597221 -12.309405 140 207 166
6.390491 1.526703 -10.010071 96 134 134
6.399863 1.555363 -9.957460 101 132 129
6.300658 1.510371 -9.733961 201 207 207
6.303702 1.509492 -9.611551 255 255 255
6.322763 1.591964 -9.320681 228 200 241
6.305033 1.598345 -9.206144 113 156 140
6.386762 1.537019 -9.100779 121 159 148
6.395029 1.599828 -9.025195 119 155 143
6.397657 1.599470 -8.878797 124 162 147
6.322576 1.599540 -8.701009 223 232 201
6.303905 1.593068 -8.685022 229 236 213
6.346369 1.597892 -6.212666 47 54 63
6.312741 1.546377 -6.199520 101 111 110
6.366270 1.529868 -5.716446 159 134 173
6.358713 1.589687 -5.636804 151 141 164
6.314954 1.563906 -4.503146 102 108 98
6.332441 1.593729 -4.431036 103 106 97
6.352905 1.592613 -4.303573 86 93 85
6.301007 1.598056 -4.224140 102 109 101
6.303800 1.597597 -4.104706 101 109 98
6.379441 1.597543 -4.093443 100 106 94
6.332040 1.587704 -3.976978 110 116 106
6.343270 1.596569 -3.886527 108 115 107
6.364888 1.595417 -3.761157 110 115 108
6.302121 1.598864 -3.645120 123 130 114
6.302672 1.593183 -3.574552 120 126 114
6.316137 1.593101 -3.493419 118 124 112
6.339569 1.589355 -3.374630 96 106 95
6.370346 1.592242 -3.279148 93 104 90
6.389570 1.598571 -3.166848 100 112 98
6.380014 1.596888 -3.076762 121 133 121
6.388105 1.653214 -12.814022 154 207 187
6.374080 1.660210 -12.740957 152 205 185
6.394275 1.671142 -12.601160 145 197 175
6.359815 1.674052 -12.515291 55 97 73
6.372244 1.674325 -12.433126 186 228 204
6.357762 1.603773 -12.302073 158 227 183
6.315580 1.634353 -12.200573 108 168 134
6.366367 1.661798 -12.102139 133 193 159
6.370311 1.697214 -12.008647 103 157 123
6.313069 1.697440 -11.972460 103 157 125
6.349040 1.675481 -11.802512 142 188 160
6.360247 1.675949 -11.707896 141 187 158
6.370869 1.676599 -11.617966 139 184 155
6.380896 1.677540 -11.532698 143 183 156
6.396595 1.675623 -11.403164 138 178 151
6.303807 1.654023 -11.307885 123 163 139
6.319701 1.664194 -11.205577 121 159 134
6.334888 1.673385 -11.107632 117 155 132
6.349628 1.680899 -11.012085 112 147 125
6.365024 1.682798 -10.910232 115 148 127
6.379120 1.686159 -10.817532 113 146 125
6.382743 1.695130 -10.705528 110 145 123
6.371404 1.694976 -10.606680 108 141 120
6.360769 1.694528 -10.512678 104 138 117
6.367059 1.693507 -10.402918 104 137 118
6.385018 1.689329 -10.300181 102 133 115
6.302997 1.658012 -10.221746 181 203 195
6.332333 1.655880 -10.102970 188 230 216
6.300773 1.654260 -10.045842 86 107 98
6.300037 1.612156 -9.904620 170 182 200
6.386623 1.619319 -9.801447 244 228 254
6.362405 1.633409 -9.723059 228 213 244
6.375205 1.691927 -9.501403 186 190 199
6.393838 1.681332 -9.401379 144 182 169
6.378905 1.661736 -9.308216 138 169 161
6.399006 1.656627 -9.231757 139 171 160
6.351775 1.688591 -9.105930 149 187 172
6.396673 1.687413 -9.001938 148 186 171
6.397418 1.685993 -8.903733 147 189 169
6.385907 1.678111 -8.800359 152 194 172
6.399050 1.672407 -8.704955 131 162 147
6.389487 1.648215 -8.604579 98 113 106
6.392036 1.651865 -8.502974 52 62 64
6.302912 1.671763 -8.445234 112 116 119
6.395017 1.670242 -8.300769 135 147 147
6.398709 1.673110 -8.204332 145 157 157
6.344942 1.677766 -8.105314 151 162 164
6.301459 1.676460 -8.039929 148 162 162
6.302709 1.677363 -7.983151 129 139 140
6.399267 1.669164 -7.893974 158 162 174
6.396137 1.667396 -7.786292 144 141 160
6.398729 1.668386 -7.699279 145 142 163
6.394343 1.645982 -7.521026 198 191 199
6.397647 1.647570 -7.494251 255 255 255
6.398122 1.648454 -7.397182 255 255 255
6.397900 1.652588 -7.299494 255 255 255
6.398541 1.667917 -7.181906 174 151 177
6.397448 1.667609 -7.095293 167 152 171
6.320763 1.663550 -6.900858 151 138 156
6.396515 1.664145 -6.849410 149 138 155
6.396738 1.664254 -6.754149 153 140 157
6.398644 1.665113 -6.699080 153 140 157
6.399934 1.667338 -6.595803 153 141 155
6.398204 1.670334 -6.499659 151 139 153
6.395456 1.674909 -6.391526 142 131 145
6.393088 1.646622 -6.293894 23 22 38
6.399412 1.643261 -6.193229 44 47 54
6.396966 1.671326 -6.090167 94 98 99
6.399979 1.670247 -5.960890 101 105 106
6.395730 1.668678 -5.895690 103 107 108
6.391196 1.673181 -5.788684 108 112 113
6.391211 1.680543 -5.683671 109 113 114
6.343357 1.693679 -5.599812 112 116 117
6.399233 1.687789 -5.495324 132 128 146
6.358043 1.614091 -5.201718 148 146 147
6.388069 1.607886 -5.127424 245 241 245
6.332663 1.651248 -5.067188 100 102 97
6.392840 1.652985 -4.998884 100 100 100
6.331149 1.655621 -4.899435 89 94 90
6.369361 1.653606 -4.798884 67 72 65
6.340542 1.652257 -4.699206 84 87 80
6.384447 1.655776 -4.597770 84 86 81
6.343294 1.659833 -4.498666 91 94 85
6.313469 1.663291 -4.397623 90 93 86
6.337601 1.668108 -4.298598 90 93 82
6.392072 1.674879 -4.194766 88 94 84
6.391626 1.677460 -4.081945 87 90 79
6.391993 1.677847 -3.966792 87 90 79
6.377552 1.672903 -3.802832 120 124 109
6.311672 1.651773 -3.796765 97 103 89
6.310410 1.675575 -3.611120 97 105 90
6.355039 1.695691 -3.535213 96 104 89
6.386418 1.698050 -3.456359 95 103 88
6.388128 1.695334 -3.378575 93 101 86
6.389841 1.675189 -3.296960 91 99 85
6.395055 1.682033 -3.197780 66 77 63
6.398063 1.688990 -3.076360 97 107 96
6.371773 1.723340 -12.339961 185 218 197
6.324070 1.724815 -12.235105 212 238 227
6.319021 1.725226 -12.114240 132 156 143
6.307156 1.724793 -12.057908 156 198 176
6.314495 1.705185 -11.947556 102 156 122
6.300888 1.722005 -11.825613 153 193 169
6.317631 1.718952 -11.704436 150 190 166
6.306484 1.718932 -11.657690 150 188 165
6.304070 1.716997 -11.554329 146 184 161
6.302185 1.714558 -11.453743 146 184 161
6.308802 1.709897 -11.304326 143 178 156
6.306529 1.708275 -11.215743 140 175 153
6.304594 1.706376 -11.129804 138 176 153
6.310545 1.702473 -11.001256 137 171 151
6.308865 1.700453 -10.922873 135 168 149
6.384910 1.708373 -10.609814 107 140 119
6.387430 1.701958 -10.510707 106 139 118
6.391815 1.701503 -10.483731 107 140 119
6.308298 1.701706 -10.301812 227 233 229
6.306146 1.700879 -10.234966 239 247 240
6.304562 1.700069 -10.018933 62 78 75
6.309448 1.700347 -9.313075 142 167 163
6.306754 1.755539 -9.229248 93 117 111
