ply
format ascii 1.0
element vertex 1201
property float x
property float y
property float z
property uchar red
property uchar green
property uchar blue
end_header
-1.885993 5.191276 1.395506 83 85 84
-1.818897 5.136591 1.447283 41 47 45
-1.802511 5.148791 1.504831 47 53 51
-1.881544 5.294216 1.388647 83 87 86
-1.882214 5.216885 1.431179 42 46 45
-1.813357 5.215399 1.502557 47 53 51
-1.875216 5.396593 1.379963 79 83 82
-1.835657 5.352647 1.497749 47 51 50
-1.804707 5.340046 1.501049 45 49 48
-1.883234 5.476218 1.371782 77 82 78
-1.827243 5.482674 1.496121 40 46 44
-1.880838 5.597539 1.366175 77 82 77
-1.888553 5.502175 1.486934 47 53 50
-1.855373 5.667478 1.368563 74 79 75
-1.822189 5.682480 1.458423 55 61 59
-1.842827 5.704568 1.370204 68 74 70
-1.817699 5.779344 1.459233 55 61 59
-1.813469 5.880649 1.460487 55 61 59
-1.836669 5.973194 1.458099 55 61 58
-1.862220 6.074066 1.457314 55 61 58
-1.884168 6.123575 1.446506 64 70 68
-1.700903 -1.229113 3.196606 41 46 49
-1.713289 -1.206546 3.289380 22 23 23
-1.737545 -1.201295 4.784352 40 46 70
-1.761394 -1.200685 4.866763 43 49 75
-1.787525 -1.201624 4.957173 42 50 73
-1.714204 -1.222145 5.087611 144 153 158
-1.739732 -1.222872 5.183199 161 170 177
-1.741139 -1.222259 5.294550 162 171 178
-1.766283 -1.220869 5.390479 157 166 173
-1.793270 -1.220425 5.493525 158 167 172
-1.721984 -1.224115 5.558884 125 134 139
-1.722920 -1.223250 5.683685 123 132 137
-1.747350 -1.219579 5.784954 121 130 135
-1.771811 -1.214807 5.886249 123 128 126
-1.774468 -1.100856 -4.415617 185 174 154
-1.782375 -1.109487 -4.381459 182 169 150
-1.780953 -1.133982 -4.277269 183 172 150
-1.797065 -1.152669 -4.169905 185 174 154
-1.780853 -1.133367 -4.079704 185 174 156
-1.799364 -1.153201 -3.973144 191 180 160
-1.712235 -1.100133 -3.501958 171 164 146
-1.795274 -1.100564 -3.493096 172 165 147
-1.794172 -1.105063 -3.372364 174 166 147
-1.791936 -1.108423 -3.255413 177 169 150
-1.786738 -1.106918 -3.177383 185 176 159
-1.795663 -1.103759 -3.084802 190 182 163
-1.798362 -1.108991 -2.952500 186 175 155
-1.798849 -1.114029 -2.880892 189 178 158
-1.787225 -1.117517 -2.779769 190 179 159
-1.709886 -1.189242 3.087590 114 114 106
-1.759307 -1.136283 3.181770 120 121 115
-1.731212 -1.102195 3.291966 6 11 17
-1.707730 -1.112526 3.314275 2 6 15
-1.713112 -1.130976 4.074325 135 141 167
-1.717248 -1.131556 4.197451 156 163 173
-1.703621 -1.117115 4.220488 73 80 88
-1.715160 -1.144618 4.499906 133 138 167
-1.734215 -1.138083 4.559880 133 139 175
-1.770603 -1.121132 4.674173 138 147 189
-1.792087 -1.114886 4.741849 141 148 193
-1.773156 -1.145108 4.866049 40 42 67
-1.799701 -1.143226 4.953296 37 42 62
-1.782946 -1.148491 5.095350 144 151 160
-1.714816 -1.158604 5.170790 149 158 163
-1.719566 -1.161709 5.299316 178 187 192
-1.775805 -1.161651 5.393344 139 148 153
-1.737500 -1.178873 5.484139 163 172 177
-1.797198 -1.180399 5.589753 147 158 160
-1.713063 -1.151638 5.651994 167 160 154
-1.773384 -1.136413 5.797626 139 135 136
-1.768117 -1.126411 5.895828 145 139 140
-1.762434 -1.115832 5.995615 148 144 143
-1.756796 -1.105179 6.099190 147 143 140
-1.704570 -1.100242 6.119918 146 141 135
-1.776800 -1.032903 -6.210478 144 135 127
-1.744235 -1.038424 -6.100578 146 137 127
-1.791108 -1.040492 -6.066860 149 139 127
-1.779723 -1.045199 -5.937970 150 140 128
-1.767130 -1.048507 -5.808748 145 135 123
-1.789827 -1.049586 -5.792603 149 139 127
-1.778810 -1.053914 -5.673044 140 130 118
-1.790447 -1.059403 -5.542938 143 134 121
-1.799168 -1.062808 -5.409928 153 147 133
-1.765579 -1.064292 -5.313207 153 147 133
-1.786920 -1.065458 -5.298369 144 141 126
-1.794559 -1.068006 -5.171885 133 127 111
-1.781613 -1.069561 -5.065078 129 123 107
-1.788329 -1.071382 -4.944978 128 121 105
-1.715440 -1.006620 -4.801111 154 146 127
-1.787609 -1.000012 -4.794082 168 160 141
-1.789273 -1.032673 -4.675678 159 151 132
-1.781928 -1.053615 -4.599148 169 161 142
-1.780779 -1.081213 -4.484210 183 176 157
-1.788695 -1.063474 -4.367928 174 165 148
-1.780450 -1.081974 -4.291707 175 167 148
-1.792246 -1.075318 -4.172438 134 127 111
-1.789804 -1.075006 -4.079361 134 127 111
-1.791142 -1.077593 -3.996840 139 132 116
-1.799237 -1.077931 -3.809602 154 148 132
-1.798028 -1.078532 -3.728857 152 149 132
-1.794078 -1.076961 -3.644890 152 146 130
-1.791601 -1.076495 -3.565899 163 157 141
-1.789591 -1.076352 -3.489769 164 157 139
-1.798725 -1.077958 -3.332728 171 164 148
-1.797107 -1.078120 -3.263079 174 165 148
-1.797241 -1.079608 -3.198021 174 165 148
-1.797216 -1.082264 -3.071816 173 164 149
-1.797687 -1.085190 -2.951939 172 164 143
-1.796643 -1.085612 -2.892016 174 166 147
-1.790499 -1.090695 -2.797630 176 168 149
-1.736026 -1.034112 2.323245 76 80 81
-1.727041 -1.010333 3.091745 125 125 117
-1.729625 -1.013441 3.289819 8 13 19
-1.707263 -1.006459 3.314519 2 6 15
-1.702007 -1.033598 4.047154 141 149 188
-1.706353 -1.034566 4.113252 140 147 182
-1.723610 -1.020678 4.273971 78 87 164
-1.744849 -1.011722 4.391649 34 44 102
-1.732061 -1.017085 4.485313 73 78 83
-1.721522 -1.000344 4.591499 134 141 147
-1.700649 -1.003503 4.602008 136 141 147
-1.730785 -1.088968 4.893519 69 74 93
-1.753711 -1.088445 4.979954 71 76 96
-1.780011 -1.090595 5.079118 82 84 107
-1.749533 -1.092623 6.198883 135 129 122
-1.769342 -1.082607 6.292557 138 133 129
-1.733031 -1.064984 6.399745 134 129 125
-1.781367 -1.057365 6.491347 138 135 130
-1.759946 -1.041737 7.379629 119 116 109
-1.771012 -1.012781 7.434564 102 99 95
-1.780626 -0.910070 -5.157326 147 141 125
-1.772317 -0.915307 -5.092058 155 150 131
-1.781317 -0.957439 -4.974734 158 149 132
-1.795622 -0.977207 -4.878487 164 156 137
-1.794145 -0.975437 -4.760504 156 148 129
-1.785083 -0.997432 -4.669555 158 150 131
-1.734993 -0.901109 -3.963721 177 166 146
-1.795049 -0.904616 -3.890988 179 171 152
-1.797644 -0.914201 -3.786372 184 174 156
-1.717646 -0.970627 2.291371 79 84 87
-1.793993 -0.931575 2.332424 77 82 85
-1.713000 -0.901256 3.066764 129 129 121
-1.714748 -0.910621 3.295701 3 7 16
-1.703751 -0.915668 3.308374 2 6 15
-1.708634 -0.988708 4.176301 131 143 184
-1.718458 -0.901618 4.261390 42 49 75
-1.774489 -0.964356 4.471298 23 29 56
-1.795853 -0.951352 4.594067 38 44 70
-1.784253 -0.956042 4.698775 138 143 170
-1.713504 -0.955112 4.787381 128 137 144
-1.775458 -0.931540 4.894200 176 173 168
-1.747633 -0.924358 4.968814 182 177 171
-1.761990 -0.908484 5.012466 178 173 167
-1.753505 -0.910906 6.663881 140 137 132
-1.780526 -0.981780 7.481045 94 95 90
-1.787227 -0.907432 7.507338 89 87 84
-1.796046 -0.816647 -5.335513 181 169 155
-1.707594 -0.895000 -5.292616 193 188 169
-1.789389 -0.894954 -5.120364 151 146 127
-1.782574 -0.827415 -5.037122 159 152 136
-1.794137 -0.821941 -4.947650 153 146 128
-1.790462 -0.824120 -4.880330 154 147 129
-1.797982 -0.821176 -4.734626 152 147 128
-1.765382 -0.800885 -4.664462 156 147 130
-1.795271 -0.813354 -4.569567 154 145 129
-1.779650 -0.827923 -4.479321 154 145 128
-1.784219 -0.838950 -4.387953 165 156 139
-1.792330 -0.855847 -4.262034 171 164 146
-1.798547 -0.867372 -4.184840 173 162 144
-1.786110 -0.883881 -4.071812 171 163 143
-1.790850 -0.893270 -3.999417 175 167 148
-1.722871 -0.841468 2.223014 70 75 78
-1.704251 -0.813925 3.051434 135 135 127
-1.749441 -0.804139 3.198634 139 136 127
-1.708279 -0.801111 3.283891 4 7 16
-1.700729 -0.825695 3.303222 4 7 16
-1.726039 -0.838497 4.281896 43 51 79
-1.733436 -0.890245 4.300957 42 49 75
-1.736243 -0.810769 6.745525 98 99 94
-1.785753 -0.823784 6.804448 107 106 102
-1.714738 -0.820478 7.502148 58 61 62
-1.789626 -0.745750 -5.038592 163 156 140
-1.793030 -0.753817 -4.981092 157 150 134
-1.799061 -0.768975 -4.868996 155 146 129
-1.782833 -0.786051 -4.766835 156 147 130
-1.789128 -0.799971 -4.665713 161 152 135
-1.715799 -0.711606 2.361920 127 126 134
-1.745538 -0.750585 2.416269 127 126 134
-1.702178 -0.796340 3.047764 135 135 127
-1.728840 -0.717061 3.192058 119 123 123
-1.703717 -0.711130 3.275705 3 7 16
-1.743922 -0.778894 6.778815 97 96 94
-1.756590 -0.712095 6.832397 60 65 68
-1.714853 -0.740768 7.492363 27 29 28
-1.718075 -0.783322 7.515900 33 35 34
-1.777240 -0.678094 2.237976 2 7 14
-1.775856 -0.683498 2.324312 1 4 9
-1.712241 -0.603120 3.099099 141 142 136
-1.729337 -0.616257 3.194212 123 126 131
-1.702231 -0.606295 3.273902 6 11 17
-1.734309 -0.604719 6.894583 52 58 56
-1.706007 -0.566917 3.087735 143 143 131
-1.718877 -0.509624 3.175255 126 129 134
-1.700659 -0.518958 3.271725 9 14 20
-1.727729 -0.523948 6.854819 38 43 45
-1.743038 -0.483172 2.267117 1 5 8
-1.788384 -0.479671 2.340432 0 3 5
-1.712332 -0.447652 3.195446 113 120 125
-1.700085 -0.432332 3.271554 27 31 40
-1.701450 -0.101551 2.123191 21 25 37
-1.714820 -0.115174 2.353769 224 223 219
-1.798926 -0.193636 2.472188 205 208 199
-1.714418 -0.140760 3.171000 217 218 212
-1.744338 -0.099270 2.409001 32 31 31
-1.712217 0.118404 2.122567 171 186 134
-1.710980 0.490468 2.109184 223 224 219
-1.763682 1.591679 3.892970 176 185 188
-1.705624 1.595818 3.922999 158 158 158
-1.704733 1.693844 2.892317 215 216 210
-1.711461 1.683910 2.907745 212 213 206
-1.752271 1.659257 3.082990 164 165 170
-1.708442 1.661073 3.119145 165 166 172
-1.712886 1.659194 3.221241 170 174 177
-1.705915 1.664084 3.307239 178 187 194
-1.711981 1.663430 3.426402 221 231 233
-1.709074 1.651393 3.518174 250 250 250
-1.701768 1.655292 3.606058 246 250 251
-1.709213 1.654356 3.733045 182 187 191
-1.709331 1.649276 3.811610 173 176 183
-1.712290 1.646351 3.900668 167 171 175
-1.718335 1.642759 4.046580 166 167 172
-1.721457 1.642327 4.100417 163 167 170
-1.707229 1.641658 4.210511 161 165 168
-1.715611 1.642472 4.335638 168 170 174
-1.740407 1.641486 4.400311 174 175 180
-1.713940 1.607459 4.526317 178 178 180
-1.705810 1.608790 4.658873 171 172 174
-1.712085 1.609066 4.730042 173 174 176
-1.702535 1.614570 4.816241 167 168 170
-1.715440 1.615156 4.971994 164 165 167
-1.722001 1.615266 5.053479 163 163 165
-1.706648 1.617139 5.138264 158 158 158
-1.712483 1.616642 5.223671 157 157 157
-1.718858 1.616376 5.313309 155 155 155
-1.706859 1.621876 5.422544 154 154 154
-1.717277 1.624801 5.532672 154 154 154
-1.700131 1.627109 5.637577 155 153 154
-1.707655 1.627699 5.746986 154 152 153
-1.714346 1.627380 5.857206 152 152 150
-1.701025 1.634022 5.994892 152 151 149
-1.702022 1.725193 2.885727 218 219 211
-1.705339 1.786220 2.939130 216 219 212
-1.714218 1.776423 3.598087 80 81 86
-1.708448 1.768227 3.641772 123 122 127
-1.708867 1.743876 3.700926 146 146 148
-1.753563 1.700545 4.699007 130 129 125
-1.714954 1.885552 2.888593 225 227 216
-1.700328 1.878973 2.933019 220 223 216
-1.751510 1.986006 2.898819 225 227 216
-1.712728 1.996151 2.924279 224 225 217
-1.751158 2.091237 2.898483 225 227 216
-1.709570 2.092709 2.922427 226 227 221
-1.738167 2.199898 2.898564 225 228 219
-1.706737 2.190488 2.921368 228 229 221
-1.740993 2.297509 2.791151 234 234 224
-1.714193 2.278367 2.896232 228 229 221
-1.706501 2.293058 2.926381 228 229 221
-1.768612 2.355661 2.799680 230 230 220
-1.708125 2.383317 2.889458 222 223 215
-1.705793 2.396129 2.930362 222 225 216
-1.701530 2.488807 2.881564 206 209 200
-1.703868 2.498343 2.931575 213 214 206
-1.715622 2.579802 2.871805 183 186 179
-1.703675 2.540513 2.933422 206 207 201
-1.701685 2.698895 2.848588 131 133 133
-1.733274 2.685713 2.900396 172 171 167
-1.785775 2.799503 1.286061 123 117 117
-1.713313 2.779724 1.328632 74 70 69
-1.712525 2.751575 1.413326 109 109 109
-1.705290 2.771522 1.548025 112 112 114
-1.707283 2.763794 1.606780 114 114 116
-1.704075 2.754944 1.717879 120 121 123
-1.706351 2.751303 1.812433 125 126 129
-1.706890 2.744222 1.908814 138 138 140
-1.710281 2.741785 2.014165 153 153 155
-1.701148 2.739142 2.103090 158 159 163
-1.788568 2.732567 2.294308 142 141 147
-1.708633 2.740603 2.331880 155 153 164
-1.703947 2.746355 2.435491 149 149 157
-1.703098 2.754776 2.512163 145 146 151
-1.705620 2.775158 2.640609 139 142 148
-1.703263 2.781767 2.721876 134 138 141
-1.704615 2.771464 2.813273 121 122 126
-1.754651 2.725447 2.900905 152 151 151
-1.756787 2.896243 1.293056 123 117 117
-1.704432 2.893321 1.350377 75 73 74
-1.741268 2.997265 1.299539 124 120 117
-1.709834 2.986042 1.341861 75 73 74
-1.784944 3.091820 1.299594 124 120 112
-1.706564 3.085815 1.320106 77 73 74
-1.798457 3.158465 1.299724 126 118 115
-1.724345 3.113896 1.311496 75 71 72
-1.794009 3.279147 1.297063 129 120 115
-1.713735 3.273496 1.346637 77 76 72
-1.710553 3.371785 1.352243 78 74 71
-1.705022 3.469141 1.355675 76 72 69
-1.723038 3.584779 1.357776 75 72 67
-1.716606 3.688382 1.360499 75 70 66
-1.710924 3.798316 1.364399 73 69 68
-1.704154 3.882100 1.373573 43 49 49
-1.716529 3.841599 1.400685 103 98 92
-1.738045 3.920832 1.381410 42 50 49
-1.757358 3.987834 1.421200 50 56 56
-1.704383 4.090268 1.486235 53 62 59
-1.703829 4.196206 1.494394 53 59 57
-1.723849 4.177497 1.506454 59 68 65
-1.719363 4.289291 1.489005 53 59 57
-1.718293 4.298208 1.543025 44 50 48
-1.712563 4.385911 1.489876 52 58 56
-1.724684 4.378204 1.533085 43 49 47
-1.705687 4.486388 1.490971 50 56 54
-1.704795 4.480424 1.517392 42 48 46
-1.701526 4.599106 1.495613 49 55 53
-1.712885 4.569840 1.508898 42 48 48
-1.751599 4.684114 1.499981 43 48 51
-1.722891 4.666848 1.502147 43 49 49
-1.735074 4.772572 1.497352 42 48 46
-1.706551 4.756114 1.500109 41 47 47
-1.715568 4.855193 1.491639 42 48 46
-1.723104 4.855968 1.505164 44 53 50
-1.722118 4.948530 1.479721 41 47 45
-1.718970 4.984289 1.510363 46 52 50
-1.728365 5.042821 1.466932 39 45 43
-1.702919 5.047061 1.515364 43 50 49
-1.758842 5.100838 1.454277 39 45 43
-1.724335 5.183527 1.513473 40 49 46
-1.750946 5.260433 1.480932 50 56 54
-1.708358 5.252265 1.519329 40 46 44
-1.794722 5.337081 1.474829 52 58 56
-1.757095 5.396030 1.509045 39 45 45
-1.703189 5.443205 1.467499 74 75 72
-1.796781 5.472909 1.500653 40 46 44
-1.794366 5.519137 1.397911 71 77 73
-1.700889 5.545464 1.472690 86 83 79
-1.775866 5.676945 1.393630 68 74 72
-1.767981 5.699873 1.463973 54 60 58
-1.796190 5.727745 1.383500 68 74 72
-1.790281 5.788571 1.462133 55 61 59
-1.787531 5.896762 1.465474 56 62 60
-1.782010 5.984113 1.454598 62 68 64
-1.613893 -1.219792 2.963917 107 109 106
-1.614001 -1.239679 3.088551 80 87 95
-1.614524 -1.226606 3.190884 75 80 86
-1.666361 -1.211666 3.299312 57 58 61
-1.607583 -1.205467 3.322248 94 94 94
-1.611557 -1.206482 4.349136 77 78 83
-1.651120 -1.205141 4.485825 27 32 35
-1.658182 -1.213182 4.597898 78 82 87
-1.680468 -1.213742 4.676500 76 81 87
-1.687386 -1.220981 4.793476 137 143 152
-1.689095 -1.221944 4.895010 135 144 149
-1.605050 -1.228241 4.976922 124 133 138
-1.605228 -1.229335 5.084223 127 136 141
-1.604586 -1.229409 5.192101 128 137 142
-1.626947 -1.228742 5.285035 129 138 143
-1.625796 -1.227670 5.396876 128 137 142
-1.649672 -1.227290 5.498363 126 135 140
-1.672637 -1.224667 5.595764 123 132 137
-1.649321 -1.226657 5.620412 123 132 137
-1.674415 -1.226008 5.729475 121 131 134
-1.678643 -1.101243 -4.460697 174 166 147
-1.696141 -1.118543 -4.391418 179 168 148
-1.698594 -1.144252 -4.290448 184 173 151
-1.697154 -1.165420 -4.185938 182 171 149
-1.694125 -1.140148 -4.091634 182 171 151
-1.696306 -1.163603 -3.992820 187 176 156
-1.647925 -1.101602 -3.501316 171 164 146
-1.691532 -1.102477 -3.462320 171 164 146
-1.699898 -1.105204 -3.397597 173 166 148
-1.686131 -1.108388 -3.294471 174 167 149
-1.694436 -1.100461 -3.175007 190 182 163
-1.687785 -1.104442 -3.088849 192 181 163
-1.697972 -1.108225 -2.998667 184 173 153
-1.697303 -1.116663 -2.878375 188 177 157
-1.693512 -1.107117 -2.787083 187 176 156
-1.607633 -1.135218 2.866543 113 114 108
-1.668656 -1.133759 2.980876 115 115 107
-1.693075 -1.109358 3.026916 117 118 112
-1.603924 -1.110019 3.124363 89 89 87
-1.602891 -1.102322 3.213761 6 10 17
-1.604557 -1.113744 3.355149 1 6 12
-1.619291 -1.166361 3.786522 158 161 176
-1.619341 -1.187776 3.889112 161 165 174
-1.682575 -1.166806 3.996903 150 153 169
-1.698646 -1.159850 4.092422 154 157 174
-1.690831 -1.150265 4.186507 104 111 115
-1.684723 -1.119085 4.291090 16 19 24
-1.630693 -1.109436 4.399233 127 136 141
-1.611153 -1.113371 4.410753 129 138 143
-1.685548 -1.162716 4.578730 34 37 53
-1.691089 -1.167660 4.687928 102 105 122
-1.665924 -1.165411 4.791076 146 157 151
-1.668261 -1.167271 4.898621 139 148 153
-1.667546 -1.165678 4.998908 148 157 164
-1.692605 -1.164211 5.090176 149 158 163
-1.691586 -1.161690 5.195089 161 170 175
-1.625750 -1.176285 5.286981 129 138 143
-1.671424 -1.167456 5.347629 132 141 146
-1.676742 -1.164721 5.491132 170 163 157
-1.673708 -1.159556 5.594112 170 163 155
-1.643356 -1.148237 5.696803 168 161 153
-1.636587 -1.138828 5.791113 166 159 151
-1.602703 -1.124106 5.887553 157 155 143
-1.618764 -1.114648 5.968906 151 146 153
-1.608669 -1.101059 6.056773 120 119 126
-1.695237 -1.034598 -6.126493 116 112 101
-1.687675 -1.040974 -6.003768 136 128 117
-1.631956 -1.042301 -5.906064 130 123 113
-1.679313 -1.046294 -5.881735 133 123 113
-1.691031 -1.050585 -5.740363 137 129 118
-1.682404 -1.055160 -5.625469 147 137 125
-1.671283 -1.057339 -5.505856 150 140 128
-1.692825 -1.058483 -5.490821 151 141 129
-1.683385 -1.061906 -5.380787 149 142 126
-1.694124 -1.065551 -5.256960 145 136 123
-1.685834 -1.069431 -5.156956 140 134 120
-1.694213 -1.071255 -5.035261 138 132 116
-1.682739 -1.072130 -4.932544 133 126 110
-1.690258 -1.007992 -4.800669 153 145 126
-1.639893 -1.010735 -4.799784 158 149 132
-1.694734 -1.040634 -4.682327 163 155 136
-1.697978 -1.070749 -4.567732 174 166 145
-1.692485 -1.090577 -4.495156 172 164 145
-1.693605 -1.069091 -4.376424 175 167 148
-1.696780 -1.096813 -4.264815 178 170 149
-1.697760 -1.078345 -4.131518 138 132 116
-1.698224 -1.079223 -4.044870 138 131 115
-1.699017 -1.080359 -3.961277 139 132 116
-1.698200 -1.080158 -3.876401 139 132 116
-1.697739 -1.080237 -3.794543 143 136 120
-1.697013 -1.080521 -3.637575 162 156 139
-1.694716 -1.079053 -3.558255 167 160 144
-1.694966 -1.079671 -3.485945 165 158 142
-1.692760 -1.078648 -3.341556 169 162 143
-1.693563 -1.079693 -3.275502 169 162 144
-1.693704 -1.080548 -3.145419 175 168 150
-1.694177 -1.081295 -3.083332 177 168 151
-1.697802 -1.084975 -2.967741 173 162 144
-1.691006 -1.087820 -2.868871 175 164 144
-1.605099 -1.048609 2.963388 117 118 110
-1.698529 -1.098402 3.037265 118 119 113
-1.605487 -1.020706 3.100208 3 8 14
-1.600675 -1.062238 3.209365 9 14 20
-1.605082 -1.007074 3.357428 2 7 13
-1.601182 -1.004663 3.583019 93 98 117
-1.609911 -1.010338 3.642508 133 137 162
-1.628660 -1.003610 3.769088 143 149 168
-1.623443 -1.010591 3.888274 28 35 43
-1.619370 -1.001759 3.971633 9 13 22
-1.607489 -1.003735 4.090069 135 141 147
-1.608401 -1.016837 4.173370 27 38 103
-1.600560 -1.008239 4.221827 24 30 57
-1.694808 -1.079852 4.382170 65 67 64
-1.689390 -1.045983 4.499830 131 140 145
-1.601497 -1.027728 4.599458 146 157 161
-1.612993 -1.013438 4.635013 144 155 159
-1.625254 -1.091030 6.142794 121 114 122
-1.668891 -1.083564 6.222813 134 129 126
-1.686686 -1.072712 6.312949 133 128 125
-1.691974 -0.910429 -5.246518 210 205 186
-1.675235 -0.924523 -5.197250 192 186 168
-1.664921 -0.921156 -5.090170 188 183 164
-1.639077 -0.906004 -4.943413 170 165 146
-1.648550 -0.917070 -4.897467 160 155 136
-1.690158 -0.981580 -4.769795 153 145 126
-1.654727 -0.901935 -4.000492 178 165 148
-1.673800 -0.900344 -3.999435 174 161 144
-1.681771 -0.911646 -3.891212 178 165 146
-1.687490 -0.920749 -3.785734 180 167 148
-1.605647 -0.998150 3.001702 120 120 112
-1.604119 -0.900164 3.127882 108 110 107
-1.600213 -0.905255 3.245368 14 19 25
-1.660826 -0.902228 3.364803 5 5 17
-1.603577 -0.916869 3.589192 105 111 143
-1.612737 -0.917883 3.690179 139 146 184
-1.622887 -0.900154 3.798742 132 142 193
-1.617650 -0.907540 3.874555 26 37 116
-1.616543 -0.918908 3.964933 20 27 34
-1.610525 -0.902270 4.098626 139 147 151
-1.689412 -0.950251 4.126702 133 146 181
-1.600572 -0.960871 4.222870 47 55 95
-1.682986 -0.980784 4.696170 130 139 144
-1.679649 -0.973991 4.762274 130 139 144
-1.695318 -0.961336 4.809886 130 139 145
-1.619278 -0.818485 -5.572403 138 129 114
-1.674159 -0.820462 -5.497948 181 167 154
-1.684532 -0.867659 -5.391953 187 175 159
-1.681037 -0.897561 -5.296277 181 174 156
-1.670165 -0.896398 -5.110355 182 181 163
-1.687581 -0.829722 -5.097387 182 170 156
-1.684536 -0.834848 -4.958373 150 142 130
-1.676383 -0.831927 -4.874019 166 156 144
-1.669302 -0.800450 -4.718344 158 149 132
-1.697420 -0.806207 -4.669083 155 146 129
-1.682585 -0.820488 -4.571837 160 147 131
-1.690570 -0.832795 -4.478733 162 153 136
-1.698127 -0.844496 -4.389581 168 159 142
-1.687689 -0.862208 -4.262691 168 156 140
-1.694315 -0.872184 -4.181405 174 162 146
-1.686017 -0.889401 -4.070659 176 165 147
-1.692851 -0.898755 -3.998377 174 161 142
-1.679767 -0.846684 2.225833 86 90 91
-1.699789 -0.842720 3.042727 132 132 124
-1.600286 -0.841673 3.120345 113 115 110
-1.698842 -0.806806 3.299583 4 7 16
-1.601507 -0.807954 3.351583 2 5 12
-1.602070 -0.861720 3.586116 105 113 159
-1.604779 -0.819061 3.672060 136 150 212
-1.604587 -0.804773 3.798385 101 109 134
-1.605259 -0.814881 3.890026 41 51 87
-1.608848 -0.812665 3.945995 56 62 98
-1.604655 -0.814469 4.083571 135 144 149
-1.604434 -0.872886 4.164925 26 34 56
-1.600590 -0.889821 4.224433 51 57 79
-1.696126 -0.766025 -4.921333 187 180 164
-1.675770 -0.774668 -4.865569 192 185 169
-1.688744 -0.792290 -4.770073 158 149 132
-1.647522 -0.764647 2.107252 71 76 79
-1.633267 -0.710994 2.212903 75 76 81
-1.604465 -0.700077 2.387516 154 155 157
-1.676124 -0.714315 2.999951 139 136 129
-1.682504 -0.734522 3.011658 138 135 128
-1.625019 -0.703258 3.199448 136 136 126
-1.695325 -0.717044 3.293415 3 7 16
-1.601123 -0.700978 3.351849 0 4 13
-1.618412 -0.700808 3.498761 3 6 13
-1.604752 -0.713085 3.564579 3 6 13
-1.602198 -0.798674 3.666104 140 151 214
-1.601245 -0.783138 3.790341 102 110 129
-1.600024 -0.771708 3.877146 20 27 56
-1.603301 -0.722754 3.980437 57 60 81
-1.602436 -0.736214 4.027441 136 140 159
-1.650603 -0.701034 7.535900 25 25 25
-1.600173 -0.633353 2.033837 68 74 74
-1.600743 -0.681306 2.400844 155 156 158
-1.619378 -0.614819 2.894855 139 139 129
-1.633298 -0.639071 2.920637 139 139 129
-1.602294 -0.629376 3.003977 150 152 150
-1.626410 -0.608193 3.199799 137 139 128
-1.693864 -0.611602 3.291625 4 8 17
-1.601560 -0.612424 3.353741 2 6 15
-1.614394 -0.615229 3.497306 2 5 14
-1.605481 -0.602477 3.525989 2 6 15
-1.605605 -0.698381 3.858217 148 160 200
-1.652226 -0.662485 7.540081 25 25 27
-1.635290 -0.554617 2.094198 2 5 9
-1.672063 -0.594386 2.154519 1 4 9
-1.602058 -0.513751 2.863634 141 144 129
-1.601193 -0.527568 2.954784 165 177 161
-1.675871 -0.501850 3.031475 160 161 158
-1.641321 -0.511291 3.183772 155 156 150
-1.694378 -0.507495 3.293849 5 9 18
-1.603901 -0.507201 3.360027 3 7 16
-1.602323 -0.506297 3.473848 2 7 13
-1.600972 -0.565534 3.516678 2 7 13
-1.650789 -0.517397 6.839807 34 40 40
-1.627693 -0.468614 2.080151 0 4 7
-1.695160 -0.483155 2.189632 0 4 6
-1.635516 -0.425726 2.985244 183 182 175
-1.667610 -0.457936 3.046245 160 160 158
-1.696729 -0.414471 3.197832 39 45 51
-1.692830 -0.419787 3.291680 28 32 43
-1.607153 -0.402162 3.368330 5 8 15
-1.601668 -0.429911 3.427759 31 34 41
-1.653568 -0.443265 6.846304 30 38 40
-1.607769 -0.348913 2.992310 208 213 213
-1.608090 -0.306344 3.087263 34 38 47
-1.619767 -0.308896 3.177488 32 35 42
-1.614596 -0.311356 3.272370 36 37 42
-1.603637 -0.321589 3.322950 68 70 67
-1.607437 -0.289849 3.069847 253 190 115
-1.602366 -0.294492 3.108406 32 35 42
-1.603987 -0.296829 3.286468 47 51 54
-1.606962 -0.288581 3.312188 225 225 214
-1.619667 -0.170594 2.793257 147 113 104
-1.632935 -0.159713 2.897806 255 249 228
-1.670289 -0.145486 2.995918 252 253 254
-1.675685 -0.145561 3.096070 253 254 250
-1.661453 -0.144559 3.196844 252 252 251
-1.615360 -0.156409 3.275680 233 238 232
-1.635358 -0.156481 3.394141 227 232 227
-1.621209 -0.169363 3.482615 235 237 234
-1.611410 -0.165769 3.588537 27 31 34
-1.611890 -0.139665 3.681142 223 225 220
-1.654763 -0.062910 2.058706 19 23 32
-1.664585 -0.044263 2.261871 24 22 22
-1.610300 -0.082946 2.763473 193 194 196
-1.672132 0.497999 2.056073 223 224 219
-1.669670 0.510049 2.052983 221 222 217
-1.667157 1.598757 3.943698 152 152 150
-1.604461 1.573182 4.021552 141 140 138
-1.671482 1.687060 2.898442 216 217 211
-1.606099 1.690726 2.910489 215 218 211
-1.613714 1.678533 3.064314 148 149 154
-1.659863 1.659697 3.149132 167 170 177
-1.600911 1.664352 3.229056 181 185 194
-1.602093 1.651650 3.390506 183 186 191
-1.603876 1.651989 3.428053 185 188 192
-1.611979 1.656705 3.515914 188 192 195
-1.600631 1.659662 3.601244 182 183 188
-1.602865 1.657807 3.725526 174 175 180
-1.600307 1.652684 3.803747 169 173 176
-1.602010 1.649804 3.943066 164 168 172
-1.604654 1.649052 4.046247 163 167 170
-1.644816 1.646724 4.100762 162 166 169
-1.601176 1.617159 4.232379 164 164 166
-1.608615 1.617328 4.346885 168 167 172
-1.610180 1.615437 4.400518 165 166 168
-1.617256 1.614705 4.523121 164 165 167
-1.605626 1.616205 4.655917 161 163 162
-1.610315 1.616720 4.727760 160 162 161
-1.619145 1.620624 4.813967 159 161 160
-1.604987 1.621003 4.962569 158 158 158
-1.609327 1.621052 5.043551 156 156 156
-1.614207 1.621423 5.128766 156 156 156
-1.618184 1.620883 5.213752 155 155 155
-1.600224 1.623131 5.306163 154 154 154
-1.609740 1.627445 5.417152 154 154 152
-1.617767 1.630305 5.526738 153 153 153
-1.624955 1.632267 5.637135 152 152 152
-1.604477 1.634132 5.744351 152 152 150
-1.610834 1.635536 5.861723 151 151 149
-1.620658 1.639734 5.996368 151 151 149
-1.649416 1.639431 6.002861 151 151 149
-1.600958 1.701508 2.897603 218 221 214
-1.617087 1.785355 2.951491 217 220 213
-1.678003 1.701866 3.001001 208 211 204
-1.601249 1.784348 3.656553 86 87 91
-1.604290 1.763563 3.725706 137 137 137
-1.610907 1.723621 3.802781 141 141 141
-1.604705 1.899654 2.896124 225 225 215
-1.610147 1.894049 2.942310 223 224 216
-1.615718 1.988031 2.894993 229 229 219
-1.605060 1.985941 2.936445 226 227 219
-1.654895 2.093756 2.899390 229 231 220
-1.600916 2.099737 2.934430 229 230 222
-1.687034 2.188838 2.898696 229 231 220
-1.616528 2.182797 2.932847 229 230 224
-1.699007 2.226649 2.786923 242 243 235
-1.694017 2.294623 2.898355 228 229 221
-1.614898 2.282341 2.935701 230 231 223
-1.619693 2.342547 2.798447 233 233 223
-1.649165 2.388208 2.896463 224 225 217
-1.613542 2.383444 2.939319 225 228 219
-1.603689 2.480491 2.892888 210 213 204
-1.611040 2.483616 2.940125 218 219 213
-1.614681 2.589866 2.880001 181 183 180
-1.611429 2.526535 2.943974 211 212 206
-1.604569 2.690573 2.864696 137 137 137
-1.615436 2.687098 2.905923 147 149 148
-1.693864 2.794205 1.299107 125 119 119
-1.608205 2.777159 1.342709 76 76 78
-1.610725 2.753170 1.405084 112 111 116
-1.623556 2.767350 1.595389 115 115 117
-1.609998 2.766650 1.603238 117 117 119
-1.601777 2.753189 1.708341 121 125 128
-1.611239 2.747179 1.816551 137 141 144
-1.611363 2.743431 1.914148 169 172 177
-1.611714 2.739919 2.016910 255 255 255
-1.601669 2.738745 2.105715 252 253 254
-1.605181 2.741458 2.224544 173 182 197
-1.640356 2.747583 2.389933 158 158 170
-1.613143 2.750671 2.413497 159 159 171
-1.606765 2.757903 2.520601 150 153 162
-1.604742 2.767764 2.600362 146 147 152
-1.600564 2.781249 2.723438 134 138 141
-1.604766 2.780821 2.824878 122 123 127
-1.694881 2.713384 2.901559 160 159 157
-1.609374 2.886258 1.355046 77 76 81
-1.610654 2.993188 1.340532 75 73 76
-1.608041 3.030383 1.331019 77 75 76
-1.602760 3.186929 1.356639 79 75 72
-1.618511 3.291276 1.360047 77 73 70
-1.610325 3.382062 1.362192 76 72 69
-1.603027 3.478785 1.365791 75 71 68
-1.617487 3.591269 1.366998 77 69 66
-1.606739 3.687733 1.366991 77 69 67
-1.616968 3.769041 1.368093 75 69 69
-1.610872 3.773284 1.403301 105 98 92
-1.606999 3.846084 1.374980 43 49 47
-1.609002 3.876936 1.414690 59 63 59
-1.663508 3.910219 1.419079 54 60 58
-1.674606 4.011016 1.441793 49 55 53
-1.604564 4.193128 1.494024 96 91 87
-1.652655 4.146192 1.505235 86 85 83
-1.619852 4.290001 1.490631 97 92 88
-1.601424 4.272317 1.520335 72 64 61
-1.627561 4.382035 1.493218 88 80 77
-1.626542 4.346925 1.500372 89 81 78
-1.602583 4.470106 1.472016 88 80 77
-1.674318 4.488741 1.506969 36 40 36
-1.615419 4.577854 1.470930 89 81 78
-1.654028 4.561091 1.500257 94 91 88
-1.617618 4.695342 1.389497 139 127 119
-1.629760 4.658051 1.480021 86 80 78
-1.670374 4.680084 1.502392 36 38 36
-1.623244 4.791766 1.384559 137 127 118
-1.644298 4.775634 1.479934 81 80 78
-1.685355 4.797633 1.502114 38 44 44
-1.606074 4.842827 1.380917 141 128 120
-1.651402 4.834947 1.479415 43 45 43
-1.675443 4.894250 1.508674 42 48 48
-1.605961 4.982586 1.377061 140 127 121
-1.698809 4.987066 1.479794 38 44 42
-1.648682 4.920543 1.500528 80 79 77
-1.643166 5.085514 1.492742 84 85 83
-1.676496 5.077746 1.508251 42 46 46
-1.692558 5.109105 1.486664 51 57 55
-1.690924 5.159463 1.512185 41 47 45
-1.623936 5.246290 1.456507 120 111 106
-1.650051 5.347083 1.463293 121 112 107
-1.680472 5.462839 1.474116 119 112 109
-1.607254 5.583959 1.463502 133 122 118
-1.609962 5.692294 1.465403 130 120 118
-1.636099 5.784644 1.466003 119 108 102
-1.683785 5.849849 1.462284 131 120 114
-1.504087 -1.207680 2.893275 78 83 87
-1.513948 -1.208585 2.989788 77 84 90
-1.500933 -1.223832 3.088567 78 83 89
-1.582884 -1.213199 3.198166 73 80 88
-1.555251 -1.203149 3.298698 78 82 91
-1.504916 -1.202207 3.323521 102 106 117
-1.511400 -1.203187 3.478711 113 116 125
-1.504473 -1.201802 3.568197 67 74 82
-1.500629 -1.200791 3.613999 68 75 83
-1.520434 -1.202473 3.885646 141 146 150
-1.504012 -1.206894 3.977343 79 84 88
-1.536608 -1.205264 4.089923 85 90 94
-1.587819 -1.200251 4.186947 144 149 154
-1.592088 -1.206366 4.281816 74 78 82
-1.575453 -1.211314 4.390346 118 124 125
-1.578910 -1.216956 4.490540 125 133 138
-1.580536 -1.220253 4.587251 128 140 146
-1.582445 -1.223966 4.688536 162 173 179
-1.582560 -1.225381 4.786313 129 138 143
-1.583916 -1.228467 4.892760 124 133 138
-1.584453 -1.230532 4.999786 127 136 141
-1.518530 -1.232291 5.052183 127 134 140
-1.517616 -1.234216 5.163741 130 138 141
-1.516959 -1.236627 5.281081 137 144 150
-1.536744 -1.234578 5.370975 137 145 148
-1.579084 -1.229475 5.436763 126 137 139
-1.521952 -1.105849 -5.030924 166 159 143
-1.571965 -1.105207 -4.975929 161 154 137
-1.580153 -1.101250 -4.505680 173 162 144
-1.590191 -1.110298 -4.470606 172 163 142
-1.594644 -1.136018 -4.363654 181 170 150
-1.591563 -1.154213 -4.299015 185 172 153
-1.594972 -1.177005 -4.198791 188 173 154
-1.595325 -1.156881 -4.074246 188 176 154
-1.598485 -1.178389 -3.973158 191 178 159
-1.569731 -1.101721 -3.511120 171 162 145
-1.597757 -1.101759 -3.484236 171 164 146
-1.587280 -1.105706 -3.380785 173 166 148
-1.592746 -1.111321 -3.273260 177 168 151
-1.586295 -1.100745 -3.176929 187 179 160
-1.598660 -1.104431 -3.083402 189 181 162
-1.599413 -1.108549 -2.967347 191 179 163
-1.593112 -1.110452 -2.871219 185 174 154
-1.503670 -1.100400 2.691223 122 124 119
-1.542142 -1.128573 2.799864 114 115 109
-1.563210 -1.134793 2.810616 110 111 105
-1.598210 -1.175832 2.982551 112 111 106
-1.595375 -1.194110 3.089250 47 51 52
-1.564779 -1.115432 3.191834 3 7 10
-1.567750 -1.101516 3.261077 100 99 95
-1.574533 -1.106583 3.375792 147 150 159
-1.578956 -1.109183 3.493280 149 152 170
-1.583696 -1.112607 3.580540 159 163 174
-1.592404 -1.101322 3.681725 157 161 171
-1.534088 -1.115900 3.799992 97 104 112
-1.513513 -1.114658 3.890152 146 155 162
-1.506067 -1.107532 3.972035 169 178 185
-1.518793 -1.100324 4.007096 150 159 166
-1.582035 -1.175828 4.193734 148 155 161
-1.596322 -1.145527 4.299717 127 136 143
-1.507275 -1.126937 4.380320 145 154 159
-1.508729 -1.105998 4.459829 140 149 154
-1.554909 -1.172423 4.588689 137 148 153
-1.555296 -1.174706 4.688271 142 151 156
-1.555550 -1.176897 4.791250 133 142 147
-1.553169 -1.175907 4.887868 129 138 143
-1.551868 -1.176326 4.992782 130 139 144
-1.575261 -1.175962 5.085907 129 138 143
-1.571644 -1.173107 5.187641 129 138 143
-1.534097 -1.170871 5.295509 133 133 135
-1.504238 -1.160613 5.388920 168 161 155
-1.521213 -1.157410 5.474867 173 164 155
-1.513991 -1.149693 5.565766 169 161 153
-1.505962 -1.140921 5.655992 161 157 164
-1.521389 -1.134058 5.737936 136 133 146
-1.577850 -1.121523 5.896916 158 153 184
-1.542820 -1.106210 5.994243 126 123 132
-1.592737 -1.033926 -6.056872 114 108 94
-1.585785 -1.039096 -5.933475 118 112 100
-1.579308 -1.044282 -5.815174 120 114 102
-1.573356 -1.049550 -5.701927 125 117 106
-1.595100 -1.050672 -5.686698 141 131 119
-1.586760 -1.053880 -5.570041 149 139 127
-1.578996 -1.057215 -5.458392 146 136 124
-1.591265 -1.060772 -5.333090 147 138 123
-1.584488 -1.064565 -5.231629 150 139 125
-1.597247 -1.068714 -5.117001 150 141 126
-1.509866 -1.094634 -5.064400 185 175 158
-1.599040 -1.072925 -4.903273 144 137 121
-1.580487 -1.004299 -4.845037 170 163 145
-1.589528 -1.013478 -4.798898 165 157 138
-1.599837 -1.048615 -4.688969 166 158 139
-1.583495 -1.081405 -4.578205 172 161 143
-1.579629 -1.057495 -4.467567 171 160 142
-1.574742 -1.076113 -4.387044 168 160 141
-1.594763 -1.084340 -4.258777 142 135 117
-1.587349 -1.085766 -4.184121 142 135 117
-1.596920 -1.088005 -4.098779 143 134 117
-1.589977 -1.083605 -3.960670 141 132 117
-1.591392 -1.084019 -3.879642 142 135 119
-1.592213 -1.083932 -3.799435 142 133 116
-1.593063 -1.083127 -3.643631 148 141 123
-1.593120 -1.082430 -3.567997 162 155 139
-1.594644 -1.083041 -3.497360 166 159 143
-1.598238 -1.084789 -3.362362 167 160 142
-1.597187 -1.083194 -3.291774 168 161 145
-1.596711 -1.081479 -3.158888 172 165 149
-1.597367 -1.081427 -3.096482 174 167 149
-1.593025 -1.084646 -2.995855 174 165 148
-1.592602 -1.075163 -2.893423 182 174 155
-1.500817 -1.021942 2.687246 126 128 123
-1.530660 -1.086203 2.722942 111 112 106
-1.565359 -1.009840 2.849087 117 118 112
-1.599498 -1.009882 2.952818 119 120 112
-1.597204 -1.004581 3.097239 18 23 27
-1.560367 -1.000633 3.183580 4 7 12
-1.568736 -1.003589 3.296525 124 123 123
-1.574676 -1.005675 3.376908 148 150 162
-1.592154 -1.000706 3.487153 146 150 175
-1.596928 -1.002951 3.535114 116 121 142
-1.599606 -1.089693 3.699026 151 155 167
-1.586478 -1.092721 3.796103 90 97 105
-1.569676 -1.093113 3.891755 83 92 99
-1.589377 -1.071105 3.991549 96 101 104
-1.588279 -1.046403 4.090748 121 132 136
-1.511504 -1.007963 4.152291 134 143 150
-1.575694 -1.006267 4.295319 137 144 150
-1.529761 -1.008419 4.387329 144 153 158
-1.518568 -1.092145 4.491340 142 151 156
-1.571950 -1.023025 4.583944 147 158 162
-1.583249 -1.008819 4.619494 146 157 161
-1.582405 -1.097498 6.062118 122 119 128
-1.536040 -0.901277 -5.278252 179 170 155
-1.584574 -0.922502 -5.170868 183 171 155
-1.584371 -0.951144 -5.087205 184 173 157
-1.577708 -0.973526 -4.987716 160 152 136
-1.593630 -0.990796 -4.883226 179 172 154
-1.583629 -0.985638 -4.772057 159 152 134
-1.506048 -0.900080 -4.070448 178 165 148
-1.595543 -0.905069 -3.999435 178 165 146
-1.588473 -0.918797 -3.894553 183 170 151
-1.597303 -0.927915 -3.789247 180 167 148
-1.528471 -0.926833 2.776719 119 120 114
-1.551174 -0.964205 2.821555 119 120 114
-1.587649 -0.914448 2.966396 123 123 115
-1.582090 -0.904006 3.066999 19 24 30
-1.559834 -0.921392 3.183148 3 6 13
-1.561845 -0.915728 3.282349 132 131 133
-1.575782 -0.905653 3.380146 152 154 179
-1.591751 -0.913213 3.486911 153 158 190
-1.598406 -0.915716 3.539141 121 126 158
-1.550104 -0.902419 3.616637 140 149 184
-1.541908 -0.913521 3.791708 138 147 186
-1.538404 -0.908645 3.843598 137 146 187
-1.564587 -0.998790 3.915061 130 137 155
-1.576053 -0.919341 4.014163 86 98 143
-1.530870 -0.900687 4.150963 133 144 148
-1.592219 -0.903323 4.272466 114 117 134
-1.551736 -0.907876 4.378886 134 143 148
-1.515698 -0.920055 4.426194 144 153 158
-1.595827 -0.995393 4.659054 144 155 159
-1.591632 -0.819475 -5.568150 142 135 117
-1.539991 -0.842598 -5.480697 185 173 159
-1.598851 -0.872325 -5.390447 166 154 142
-1.591893 -0.898235 -5.279234 182 173 158
-1.599075 -0.884369 -5.158560 172 161 145
-1.586197 -0.832067 -5.077703 151 141 129
-1.536868 -0.836215 -4.999319 144 135 126
-1.585902 -0.839226 -4.872360 183 169 156
-1.597072 -0.803230 -4.714537 158 148 138
-1.581518 -0.813375 -4.671178 160 150 138
-1.592350 -0.826408 -4.574264 161 152 135
-1.580165 -0.839930 -4.481129 162 153 136
-1.589517 -0.850908 -4.390023 164 152 136
-1.582711 -0.868581 -4.263330 167 155 139
-1.592575 -0.879300 -4.184278 173 162 142
-1.585701 -0.894930 -4.069494 174 162 143
-1.585182 -0.833152 -3.990352 170 162 143
-1.545162 -0.835747 -3.897168 175 164 144
-1.543393 -0.838434 -3.776505 181 168 149
-1.507755 -0.841693 -3.696166 184 171 152
-1.571000 -0.802049 2.298623 156 156 158
-1.508001 -0.802036 2.367361 165 169 170
-1.514306 -0.805602 2.750851 127 127 119
-1.550534 -0.870608 2.892340 134 136 133
-1.575694 -0.801623 2.980369 136 136 129
-1.569411 -0.804393 3.080767 14 17 24
-1.566579 -0.810599 3.196796 0 4 13
-1.562551 -0.802256 3.284807 138 139 140
-1.572065 -0.801812 3.372760 154 157 190
-1.585800 -0.804148 3.474306 153 160 204
-1.595961 -0.803182 3.572437 108 122 197
-1.598768 -0.818884 3.617847 135 149 223
-1.533872 -0.821619 3.771518 138 150 208
-1.530496 -0.815726 3.823416 142 150 188
-1.564205 -0.819337 3.982517 93 101 124
-1.572673 -0.871372 4.005548 93 99 127
-1.544762 -0.810569 4.134458 125 136 140
-1.584493 -0.848830 4.250408 105 110 132
-1.554188 -0.885560 4.387145 131 140 145
-1.514526 -0.894198 4.422873 142 151 156
-1.500264 -0.752403 -5.007997 180 168 154
-1.530866 -0.757816 -4.946809 181 167 154
-1.563251 -0.765245 -4.894882 182 168 155
-1.528461 -0.784046 -4.791807 183 170 154
-1.520470 -0.722317 1.892204 71 76 80
-1.555006 -0.715714 1.941782 74 79 83
-1.572785 -0.736331 2.045894 78 84 84
-1.576089 -0.796800 2.288835 156 156 158
-1.575886 -0.705907 2.399811 155 156 160
-1.502608 -0.700087 2.441449 169 173 176
-1.502680 -0.729641 2.698654 165 169 170
-1.523795 -0.705232 2.772084 133 133 126
-1.564973 -0.701480 2.889167 134 134 124
-1.564074 -0.705127 2.994951 96 100 103
-1.562839 -0.712985 3.068451 15 19 30
-1.561951 -0.717428 3.188317 2 5 14
-1.562651 -0.786045 3.285159 138 139 140
-1.572688 -0.701651 3.374931 159 160 188
-1.583508 -0.715884 3.469803 157 163 202
-1.586252 -0.701388 3.589450 140 152 202
-1.593035 -0.712927 3.685878 147 152 191
-1.586286 -0.709392 3.798028 11 22 44
-1.592801 -0.707939 3.859399 27 33 62
-1.597403 -0.704934 3.917531 50 52 73
-1.564357 -0.710939 4.080563 177 174 169
-1.500534 -0.702947 4.121955 177 174 167
-1.506159 -0.664766 1.873087 73 78 82
-1.545316 -0.617167 1.949878 79 84 90
-1.587026 -0.692690 2.398319 154 155 159
-1.505347 -0.605347 2.490540 180 186 186
-1.501389 -0.603200 2.551531 179 183 184
-1.507260 -0.600412 2.741098 137 137 127
-1.553773 -0.612738 2.868275 137 137 127
-1.558235 -0.617156 2.984487 97 100 105
-1.556648 -0.600135 3.096851 3 7 16
-1.556057 -0.606206 3.177365 2 5 14
-1.549796 -0.603008 3.294007 1 5 14
-1.568379 -0.615049 3.366101 185 188 207
-1.576498 -0.601146 3.491467 123 134 198
-1.576798 -0.605598 3.568052 149 165 224
-1.573701 -0.601169 3.681697 156 163 217
-1.567655 -0.601872 3.752504 5 12 31
-1.580002 -0.614619 3.873823 86 91 133
-1.581200 -0.620500 3.972678 135 139 156
-1.538404 -0.603583 4.063340 162 161 156
-1.532346 -0.675458 4.100391 172 167 161
-1.500000 -0.533777 1.879957 111 111 109
-1.570124 -0.528718 1.948276 2 7 13
-1.593333 -0.512091 2.025430 0 4 7
-1.586290 -0.592813 2.126094 123 123 132
-1.546747 -0.529789 2.496998 182 186 189
-1.511685 -0.511560 2.594708 172 176 181
-1.503301 -0.501099 2.603762 147 149 152
-1.502537 -0.566538 2.732331 138 138 128
-1.539703 -0.501546 2.876419 140 140 130
-1.545678 -0.502732 2.997560 31 35 44
-1.548857 -0.508650 3.081659 3 7 16
-1.545102 -0.503703 3.197036 5 5 17
-1.542914 -0.506599 3.279823 3 6 15
-1.566336 -0.523186 3.397000 186 189 208
-1.566313 -0.508333 3.468905 135 141 163
-1.566139 -0.502503 3.582954 165 171 204
-1.551265 -0.506290 3.669707 71 84 102
-1.568459 -0.537843 3.799322 123 133 175
-1.578821 -0.535805 3.871282 113 122 155
-1.569312 -0.564955 3.991472 138 141 156
-1.526920 -0.534707 4.032044 152 152 144
-1.504446 -0.451945 1.857109 2 7 13
-1.515917 -0.490202 1.922742 63 62 57
-1.596833 -0.462094 2.030075 0 4 7
-1.550242 -0.403007 2.593806 195 196 200
-1.507855 -0.409774 2.662823 148 149 141
-1.563649 -0.418619 2.792836 164 164 164
-1.588693 -0.409591 2.867575 162 163 158
-1.539021 -0.415257 2.985167 33 38 44
-1.539767 -0.400344 3.063970 8 12 21
-1.535109 -0.408850 3.176136 4 8 17
-1.535627 -0.410921 3.264664 2 6 15
-1.582259 -0.407410 3.391718 109 108 104
-1.564554 -0.490083 3.465026 137 144 166
-1.550666 -0.431945 3.586476 162 172 223
-1.542160 -0.436706 3.606462 156 170 215
-1.548152 -0.496389 3.704809 138 151 218
-1.517395 -0.472087 3.856398 34 36 33
-1.502347 -0.322475 1.896989 53 54 48
-1.509174 -0.302051 1.907750 51 52 46
-1.565032 -0.363375 2.596953 193 194 198
-1.540366 -0.307553 2.698678 40 36 37
-1.540013 -0.312357 2.776602 226 224 216
-1.566601 -0.307986 2.883287 228 229 221
-1.570744 -0.301269 2.920531 225 227 222
-1.597381 -0.319802 3.002720 176 185 181
-1.530541 -0.317967 3.167600 27 30 39
-1.533218 -0.300413 3.261341 54 56 56
-1.583675 -0.300385 3.396023 162 167 158
-1.567905 -0.317260 3.484379 242 245 238
-1.553735 -0.317264 3.584132 224 226 221
-1.540523 -0.318122 3.694891 207 208 201
-1.542687 -0.358475 3.700080 202 204 199
-1.514645 -0.292850 1.916523 51 52 45
-1.579180 -0.264374 2.694390 192 191 196
-1.574838 -0.213475 2.789424 83 77 79
-1.571297 -0.204279 2.893592 228 200 190
-1.578176 -0.208283 2.996693 227 228 223
-1.574260 -0.208382 3.084649 30 34 34
-1.575400 -0.210471 3.189674 36 40 42
-1.584356 -0.209238 3.281924 38 42 45
-1.585857 -0.204981 3.362080 36 40 41
-1.587728 -0.207198 3.489127 34 37 42
-1.576597 -0.204743 3.594997 32 36 39
-1.559904 -0.200339 3.695792 32 36 39
-1.573019 -0.256979 3.720075 43 44 46
-1.512972 -0.132339 1.896537 1 6 12
-1.522370 -0.111747 1.910733 2 6 15
-1.509542 -0.197615 2.699716 187 189 187
-1.587206 -0.198259 2.785999 203 157 129
-1.587583 -0.174562 2.896559 227 229 218
-1.585303 -0.174048 2.980560 254 253 237
-1.596584 -0.161987 3.098099 253 252 249
-1.585150 -0.174597 3.175630 251 252 246
-1.593863 -0.172099 3.265902 249 254 248
-1.593133 -0.189818 3.378559 163 165 160
-1.593522 -0.196251 3.419448 52 54 53
-1.594868 -0.185530 3.593780 31 35 38
-1.599369 -0.141787 3.697847 245 247 242
-1.586253 -0.143776 3.713543 247 252 245
-1.546574 -0.095752 1.947591 1 5 14
-1.502760 -0.097002 2.745815 206 207 203
-1.531058 -0.095650 2.856405 247 248 239
-1.543286 0.009264 2.037449 23 22 20
-1.512321 0.189873 1.847169 225 226 221
-1.574949 0.148678 1.933004 172 185 136
-1.504284 0.201687 1.836311 226 227 222
-1.547253 0.377028 6.769374 168 139 144
-1.546764 0.413367 6.762392 51 50 55
-1.502735 1.498729 4.256971 136 132 129
-1.501708 1.471432 4.322671 137 133 130
-1.502622 1.597785 4.060966 137 136 132
-1.517511 1.566994 4.100875 136 135 131
-1.511120 1.509861 4.211981 136 135 131
-1.508154 1.684723 2.921838 216 219 212
-1.507191 1.666878 3.012495 151 152 154
-1.514147 1.675740 3.130404 124 125 130
-1.505914 1.655154 3.246141 167 170 177
-1.506863 1.655742 3.314847 168 171 178
-1.508641 1.656941 3.425017 169 173 180
-1.513767 1.661583 3.512494 171 172 177
-1.584030 1.660677 3.601152 179 180 185
-1.512674 1.659449 3.716008 165 169 172
-1.510374 1.656729 3.800363 164 168 171
-1.500454 1.623276 3.969781 165 166 168
-1.502357 1.623375 4.018419 164 165 167
-1.507521 1.624673 4.123211 162 165 166
-1.510866 1.624094 4.228565 161 162 164
-1.512359 1.621606 4.334473 162 163 165
-1.515792 1.620652 4.452143 161 163 162
-1.519207 1.621619 4.518583 160 162 161
-1.507646 1.626611 4.662773 160 160 160
-1.509934 1.626664 4.733035 160 160 162
-1.513571 1.627882 4.809788 158 158 159
-1.517386 1.626921 4.959339 157 157 157
-1.518596 1.625686 5.035474 155 155 155
-1.521612 1.626010 5.120267 155 155 155
-1.501611 1.628019 5.208108 155 153 156
-1.504816 1.628772 5.301160 153 153 153
-1.511614 1.632740 5.410499 153 153 151
-1.518757 1.636919 5.525050 152 152 150
-1.522037 1.637445 5.629395 150 150 148
-1.501273 1.641367 5.744809 149 151 148
-1.506415 1.643964 5.867068 151 151 149
-1.509986 1.644996 5.987903 150 150 148
-1.506927 1.639771 6.086551 150 150 148
-1.508402 1.701697 2.922332 216 219 212
-1.508153 1.707794 3.007564 211 214 207
-1.505301 1.788850 3.698890 111 111 113
-1.518957 1.781309 3.739076 133 133 133
-1.505699 1.742873 3.825372 135 135 135
-1.567632 1.898738 2.899077 227 227 217
-1.505729 1.884715 2.951548 220 223 214
-1.597605 1.988392 2.898548 229 229 219
-1.500108 1.993882 2.946456 227 228 220
-1.591883 2.099208 2.899636 233 235 224
-1.513177 2.091849 2.942541 229 230 222
-1.596965 2.188914 2.899890 232 234 223
-1.510305 2.187383 2.943315 231 232 224
-1.557480 2.288130 2.897464 230 232 221
-1.508691 2.286093 2.947657 230 231 223
-1.575081 2.379285 2.899424 220 223 214
-1.506005 2.383919 2.949114 227 228 220
-1.525637 2.498613 2.899602 206 207 201
-1.504227 2.484542 2.953190 215 216 210
-1.500400 2.574187 2.894026 186 187 182
-1.557049 2.504897 2.948050 214 215 209
-1.510314 2.682913 2.880917 140 140 140
-1.512170 2.688879 2.917448 141 140 138
-1.505596 2.793347 1.352811 79 80 84
-1.508257 2.752418 1.418847 118 119 123
-1.504530 2.745507 1.501552 121 126 132
-1.542074 2.762296 1.641682 130 131 136
-1.504763 2.753354 1.700606 140 144 155
-1.510295 2.745415 1.804632 161 169 180
-1.508844 2.743356 1.901121 196 219 225
-1.507170 2.740881 2.002104 255 255 255
-1.506251 2.740034 2.109825 203 208 211
-1.505227 2.739023 2.223179 156 161 164
-1.509656 2.741177 2.312935 145 149 152
-1.504606 2.755642 2.467362 144 144 146
-1.502602 2.760101 2.504872 141 141 143
-1.509746 2.770920 2.607705 136 137 139
-1.502336 2.782786 2.727306 130 130 132
-1.505055 2.784173 2.829258 119 119 121
-1.513843 2.707743 2.911233 130 129 127
-1.503415 2.899379 1.364031 79 78 83
-1.514779 2.979117 1.342340 77 75 78
-1.569793 3.008667 1.335095 77 75 78
-1.508107 3.174686 1.370429 75 74 70
-1.502256 3.294046 1.373238 77 73 70
-1.508031 3.383444 1.294795 138 127 121
-1.512701 3.394410 1.373118 76 72 69
-1.538311 3.498953 1.274756 139 127 121
-1.502624 3.487808 1.375507 77 72 69
-1.565087 3.582301 1.275657 138 127 121
-1.512379 3.593381 1.374013 75 71 68
-1.558081 3.633984 1.288857 137 126 120
-1.520554 3.697961 1.369930 78 70 68
-1.518252 3.661849 1.401531 105 98 92
-1.507485 3.795179 1.369160 80 74 71
-1.516970 3.771492 1.402417 91 86 82
-1.533871 3.820312 1.371719 79 75 72
-1.504407 3.895227 1.429469 73 68 64
-1.554427 3.929791 1.414957 90 82 79
-1.524745 4.037066 1.479779 92 87 83
-1.554184 4.174604 1.497669 78 73 69
-1.534275 4.134199 1.518135 3 4 6
-1.542325 4.280142 1.393769 112 102 101
-1.569955 4.274978 1.496325 70 65 61
-1.512541 4.292086 1.539963 34 39 39
-1.508201 4.381890 1.364760 69 65 67
-1.511784 4.385979 1.462786 79 78 78
-1.508188 4.377456 1.511096 17 23 23
-1.528658 4.478529 1.353891 138 125 119
-1.502102 4.488776 1.417925 78 72 68
-1.503633 4.464397 1.509156 7 10 12
-1.523009 4.590188 1.383756 85 77 75
-1.500251 4.516847 1.407367 73 65 62
-1.516828 4.568200 1.504697 4 5 4
-1.523079 4.625471 1.375347 86 78 76
-1.566790 4.664544 1.402697 85 78 76
-1.509639 4.686068 1.510797 3 8 11
-1.533988 4.774428 1.384989 71 68 67
-1.540342 4.772674 1.489383 91 83 80
-1.523913 4.799873 1.506770 23 20 20
-1.529502 4.825564 1.395971 26 28 27
-1.533558 4.899715 1.495567 97 93 90
-1.512892 4.880794 1.520202 6 10 11
-1.550317 4.999169 1.367733 61 57 56
-1.562371 4.980622 1.468845 104 96 93
-1.520605 4.942411 1.518737 0 2 3
-1.564214 5.080343 1.363869 96 92 91
-1.593493 5.001912 1.469544 94 86 83
-1.514862 5.083832 1.528168 19 23 24
-1.538425 5.178600 1.360950 39 44 40
-1.546319 5.180946 1.405833 110 100 97
-1.525040 5.194174 1.517012 0 2 1
-1.513719 5.288999 1.360402 62 67 63
-1.586189 5.224723 1.420997 116 107 102
-1.507298 5.263267 1.523144 31 34 36
-1.506585 5.331703 1.361738 65 70 66
-1.579387 5.393163 1.460120 64 67 66
-1.517534 5.379387 1.511455 0 0 2
-1.500216 5.494938 1.353638 69 71 70
-1.582094 5.496508 1.462603 57 60 57
-1.501133 5.460436 1.520407 33 38 36
