ply
format ascii 1.0
element vertex 823
property float x
property float y
property float z
property uchar red
property uchar green
property uchar blue
end_header
-0.988408 -1.308978 0.421938 173 184 188
-0.977094 -1.240794 0.385887 159 170 172
-0.981616 -1.272648 0.403155 174 185 189
-0.825582 -1.216854 0.297700 65 69 72
-0.800704 -1.264143 0.305677 66 70 71
-0.802900 -1.194756 0.336283 177 183 181
-0.821623 1.186664 0.423177 111 124 117
-0.771837 -2.802965 -1.609611 213 210 203
-0.763339 -2.803977 -1.593409 214 211 204
-0.709121 -2.825617 -1.489322 214 211 204
-0.722021 -2.763335 -1.693286 213 210 201
-0.745228 -2.791798 -1.594585 216 213 206
-0.761052 -1.282705 0.245506 176 186 187
-0.767333 -1.211986 0.301235 170 180 181
-0.752739 -1.197017 0.263963 209 207 211
-0.766156 -1.189015 0.303368 174 184 185
-0.700637 -1.096506 0.295139 187 198 202
-0.713569 -1.097744 0.315290 182 193 196
-0.698428 -2.808096 -1.504378 214 211 204
-0.691623 -2.814091 -1.491118 215 212 205
-0.688884 -2.749693 -1.700552 212 209 202
-0.695955 -2.753325 -1.678179 211 208 201
-0.691562 -2.755297 -1.597806 218 217 213
-0.657388 -2.792845 -1.495406 212 209 202
-0.684820 -1.300114 0.256492 168 178 179
-0.636825 -1.291531 0.198524 234 231 224
-0.697559 -1.293495 0.210550 166 175 174
-0.699431 -1.122849 0.289995 189 200 204
-0.696933 -1.144229 0.301410 183 194 198
-0.697809 -1.093813 0.296654 182 196 199
-0.640446 -1.051879 0.302953 192 203 207
-0.605113 -0.998727 0.259739 186 200 203
-0.601620 -0.925424 0.301596 173 184 188
-0.599343 -2.804859 -1.451721 203 200 193
-0.519441 -2.812021 -1.398251 184 179 173
-0.592748 -2.716575 -1.725997 213 210 205
-0.589321 -2.709857 -1.681227 207 204 197
-0.598993 -2.705749 -1.591644 213 207 200
-0.586169 -2.767863 -1.495905 179 175 166
-0.558103 -2.699652 -1.689984 213 210 203
-0.582516 -2.696216 -1.593765 217 203 191
-0.500088 -2.695967 -1.496181 170 125 63
-0.506826 -1.303800 0.088724 225 224 222
-0.579800 -1.301204 0.146312 197 191 179
-0.511455 -1.297763 0.099009 245 246 248
-0.516629 -1.293798 0.109306 60 63 68
-0.598286 -1.280488 0.200845 219 216 209
-0.536911 -1.102636 0.199590 191 202 206
-0.540229 -1.100432 0.201844 191 202 206
-0.520418 -1.034843 0.198943 191 202 206
-0.598534 -1.056662 0.236639 187 198 202
-0.506437 -0.999478 0.198932 189 200 204
-0.589575 -0.999270 0.245025 189 200 204
-0.571699 -0.896949 0.283617 187 200 206
-0.494458 -2.705160 -1.485044 167 122 61
-0.498601 -2.665648 -1.636027 180 153 123
-0.493535 -2.647336 -1.587058 174 118 61
-0.483115 -2.680892 -1.495709 182 126 65
-0.406894 -1.502707 0.061481 65 73 76
-0.446331 -1.441568 0.056162 50 59 65
-0.498583 -1.315116 0.075364 210 212 207
-0.420191 -1.303852 0.100013 57 60 65
-0.496631 -1.297991 0.089614 207 210 207
-0.496658 -1.288080 0.103850 210 212 209
-0.499057 -1.231732 0.208349 160 168 170
-0.495272 -1.195849 0.166710 188 197 199
-0.497281 -1.102258 0.203965 190 201 203
-0.496807 -1.067558 0.181867 191 202 206
-0.499248 -1.011652 0.201715 189 200 204
-0.404857 -0.997925 0.142671 191 202 206
-0.499391 -0.999395 0.207221 189 200 204
-0.450023 -0.894346 0.250593 190 201 205
-0.399245 -1.502153 0.049266 57 66 73
-0.387401 -1.401860 0.049715 57 66 73
-0.339424 -1.309726 -0.006553 75 84 89
-0.399830 -1.384604 0.059203 57 64 66
-0.397013 -1.358994 0.100580 190 199 201
-0.302825 -1.264006 -0.033784 81 90 95
-0.399433 -1.293126 0.099254 41 49 52
-0.397944 -1.256720 0.106954 163 171 174
-0.330422 -1.110992 0.079117 199 208 210
-0.398416 -1.145856 0.115917 193 204 208
-0.352064 -1.039355 0.097150 196 205 210
-0.399305 -1.056994 0.125976 192 203 208
-0.397455 -1.010891 0.201484 187 201 204
-0.342618 -0.990550 0.098899 195 206 210
-0.393018 -0.999516 0.130296 192 203 207
-0.397971 -0.966191 0.203458 190 201 205
-0.335439 -0.899040 0.199523 188 199 205
-0.399140 -0.887584 0.222444 189 202 208
-0.324503 -0.794652 0.199506 186 198 204
-0.381624 -0.781192 0.233880 190 201 207
-0.325080 -0.699844 0.218159 188 199 205
-0.310181 3.185728 -1.802678 106 136 138
-0.372316 3.197701 -1.726331 111 141 143
-0.320593 3.224332 -1.703146 135 172 180
-0.317525 3.227303 -1.688636 137 174 182
-0.255607 -1.601502 -0.005673 88 91 93
-0.275905 -1.536638 -0.002229 84 89 93
-0.297043 -1.521289 0.012349 84 89 93
-0.277024 -1.448947 -0.003199 84 89 93
-0.297237 -1.436839 0.010551 82 89 95
-0.297466 -1.323008 -0.037415 77 84 90
-0.295149 -1.317885 0.044268 182 192 195
-0.232372 -1.283104 -0.101113 82 89 95
-0.269842 -1.272595 -0.003937 83 90 96
-0.297597 -1.299481 0.046932 190 200 203
-0.298327 -1.209665 0.101332 155 160 156
-0.263717 -1.199154 -0.000714 81 89 92
-0.297280 -1.166601 0.054777 209 220 224
-0.297523 -1.149840 0.101303 159 161 158
-0.299064 -1.016115 0.069909 196 207 211
-0.296475 -1.065071 0.116975 192 203 207
-0.297805 -0.993808 0.079872 200 211 215
-0.299866 -0.977005 0.100465 200 211 215
-0.298013 -0.885851 0.166700 189 200 204
-0.298893 -0.793002 0.184980 187 198 204
-0.293876 -0.698875 0.198940 186 199 205
-0.298457 -0.695780 0.202182 185 198 204
-0.262457 3.192934 -1.800191 111 142 145
-0.211759 3.198936 -1.779988 125 150 154
-0.290947 3.224488 -1.709778 122 150 153
-0.287765 3.225636 -1.694140 115 145 145
-0.181195 -1.603199 -0.045604 89 90 92
-0.197619 -1.546297 -0.030293 91 96 99
-0.196452 -1.481394 -0.042366 90 91 95
-0.195110 -1.415137 0.015731 67 76 83
-0.175031 -1.319997 -0.025541 213 218 219
-0.196619 -1.346474 0.007282 68 75 83
-0.102054 -1.245987 -0.102631 106 122 137
-0.175292 -1.210677 -0.019277 217 222 222
-0.193199 -1.200806 0.003335 216 227 231
-0.191182 -1.103281 -0.003230 213 219 220
-0.199473 -1.154186 0.000620 215 220 223
-0.194847 -1.096730 -0.000544 211 217 218
-0.198612 -1.092343 0.002083 216 222 224
-0.197632 -0.998186 0.095729 198 209 213
-0.198678 -0.948816 0.101472 196 207 211
-0.186072 -0.882154 0.098424 193 204 210
-0.198775 -0.897167 0.103104 193 204 210
-0.152195 -0.795920 0.098751 195 206 212
-0.197613 -0.786379 0.127526 190 201 207
-0.049899 -1.503191 -0.109009 168 177 182
-0.097337 -1.548430 -0.086753 118 127 132
-0.054665 -1.437043 -0.101393 194 205 207
-0.096671 -1.488397 -0.091653 124 135 147
-0.033767 -1.357917 -0.101597 97 95 96
-0.084555 -1.320561 -0.076529 211 222 228
-0.060604 -1.267379 -0.202934 78 88 97
-0.086054 -1.249070 -0.119187 91 103 115
-0.091305 -1.247808 -0.068544 214 226 226
-0.011424 -1.105760 -0.106597 211 221 223
-0.097232 -1.188079 -0.061744 210 222 223
-0.027238 -1.005502 -4.179439 195 194 190
-0.017185 -1.088291 -0.102141 211 219 222
-0.098018 -1.055544 -0.049456 215 226 230
-0.096106 -1.082036 0.001187 210 219 224
-0.008740 -0.949179 -4.209266 194 193 189
-0.028194 -0.964901 -4.187213 194 193 189
-0.065632 -0.982842 -0.000223 209 220 224
-0.096963 -0.994060 0.017627 204 215 219
-0.029626 -0.899464 -0.002329 209 220 224
-0.099723 -0.896647 0.039510 202 211 216
-0.099413 -0.799083 0.068804 199 210 216
0.000905 -1.480543 -0.116835 101 100 105
0.001565 -1.455703 -0.091664 94 94 96
0.004991 -1.361016 -0.115846 93 94 100
0.001767 -1.343949 -0.097798 99 98 103
0.000329 -1.254979 -0.240405 82 91 100
0.002894 -1.255496 -0.164365 82 91 98
0.001971 -1.290036 -0.075121 179 183 186
0.095680 -1.199784 -0.228542 86 95 102
0.000612 -1.124886 -0.114901 217 225 228
0.004399 -1.168025 -0.069262 223 227 230
0.074122 -1.001740 -4.250028 192 191 187
0.000494 -1.051374 -0.106641 208 222 223
0.001297 -1.025733 -0.096414 213 224 228
0.051244 -0.918796 -4.261142 192 192 190
0.027007 -0.996806 -0.102285 215 226 230
0.005682 -0.999785 -0.088785 214 225 229
0.000824 -0.892977 -0.015024 213 224 228
0.100293 -1.493378 -0.166114 106 118 130
0.138147 -1.358927 -0.161604 210 212 209
0.195676 -1.275745 -0.263774 99 108 116
0.110578 -1.279417 -0.141506 170 174 173
0.104483 -1.198389 -0.245768 89 99 108
0.102014 -1.189795 -0.197497 79 88 95
0.100394 -1.153726 -0.099876 216 229 235
0.178520 -1.000385 -4.331495 190 189 185
0.115685 -1.009743 -4.281546 192 191 187
0.111936 -1.094418 -0.137408 184 186 183
0.101505 -1.005236 -0.099302 214 227 233
0.112900 -0.906820 -4.303474 190 189 185
0.113466 -0.926957 -4.297551 191 190 186
0.100798 -0.988314 -0.107350 218 229 233
0.103927 -0.965877 -0.099255 217 228 232
0.135525 -0.894693 -0.100519 215 226 232
0.103510 -0.893763 -0.083017 214 225 229
0.244360 -1.220921 -0.320717 90 100 109
0.206936 -1.252792 -0.287585 98 108 117
0.299141 -1.219728 -0.181807 207 215 217
0.277699 -1.198954 -0.339942 55 64 69
0.288356 -1.199446 -0.283787 214 222 224
0.298319 -1.184596 -0.175845 205 213 215
0.213779 -1.068572 -0.201483 206 214 219
0.297938 -1.093160 -0.133818 204 212 214
0.237186 -0.998846 -0.203115 218 227 232
0.202211 -0.992380 -0.171521 220 229 234
0.200669 -0.898753 -0.134196 216 227 233
0.326054 -1.205880 -0.402119 48 57 62
0.300497 -1.203961 -0.314296 52 62 64
0.300908 -1.202919 -0.297480 92 100 102
0.347035 -1.209705 -0.198977 206 214 216
0.361235 -1.199890 -0.418010 45 52 58
0.302925 -1.185505 -0.343262 50 57 63
0.303093 -1.180013 -0.292493 208 216 218
0.386528 -1.158570 -0.199533 213 219 217
0.346546 -1.067662 -0.306449 211 222 226
0.398028 -1.094421 -0.202122 224 233 238
0.397951 -1.099520 -0.175685 230 239 238
0.303234 -0.998401 -0.229504 218 229 233
0.397510 -0.994428 -0.140778 233 241 243
0.394721 -0.893780 -0.123441 227 236 241
0.387784 -0.802541 -0.099341 225 234 239
0.399975 -0.796899 -0.108679 225 234 239
0.394358 -0.772560 -0.099526 223 232 237
0.399198 -0.695470 -0.088155 222 231 236
0.491828 -1.304754 -0.306221 178 183 184
0.400515 -1.213430 -0.385913 43 50 56
0.497460 -1.233222 -0.268099 200 204 203
0.492100 -1.194960 -0.300955 205 213 215
0.497495 -1.154956 -0.236596 238 242 243
0.451924 -1.104470 -0.197931 235 241 241
0.402070 -1.069322 -0.312137 210 220 222
0.498664 -1.007066 -0.214257 237 243 243
0.475581 -1.002028 -0.197324 234 240 240
0.493370 -0.999905 -0.353448 210 221 225
0.499814 -0.968782 -0.210315 236 242 242
0.495032 -0.908702 -0.198268 236 242 242
0.497373 -0.898851 -0.203358 225 234 239
0.499803 -0.839750 -0.189609 236 242 242
0.499518 -0.714158 -0.167625 235 242 244
0.410823 -0.713800 -0.099552 229 237 239
0.499668 -0.638978 -0.156542 242 244 241
0.418449 -0.611652 -0.099939 231 235 234
0.496738 -0.598172 -0.143164 233 239 239
0.463374 -0.505815 -0.099374 230 235 238
0.476796 -0.498795 -0.105694 227 235 237
0.468154 -0.499200 -0.099385 229 234 237
0.573270 -1.506077 -0.360010 176 180 179
0.533971 -1.401070 -0.342767 174 179 182
0.596916 -1.338282 -0.368794 191 196 199
0.596216 -1.230417 -0.330655 213 217 216
0.556651 -1.209216 -0.298959 160 162 161
0.532450 -1.192271 -0.409702 50 58 61
0.597903 -1.116075 -0.300998 236 240 239
0.590362 -1.104587 -0.294588 237 241 240
0.553488 -1.022745 -0.402776 175 185 186
0.599509 -1.089819 -0.300187 233 238 241
0.599044 -1.026027 -0.283403 238 242 243
0.596700 -0.998217 -0.308064 221 232 236
0.599312 -0.932807 -0.263513 238 242 243
0.504046 -0.900046 -0.198905 231 236 239
0.582639 -0.898145 -0.350957 210 223 229
0.599496 -0.814334 -0.246270 238 242 243
0.532972 -0.805535 -0.197956 237 243 243
0.592673 -0.799313 -0.326790 209 222 228
0.598650 -0.707978 -0.219375 247 250 250
0.552806 -0.705486 -0.199334 238 244 244
0.599869 -0.682788 -0.217893 86 82 79
0.599319 -0.634718 -0.198068 238 242 243
0.593982 -0.591941 -0.201906 244 244 242
0.580159 -0.599780 -0.186892 234 238 237
0.509635 -0.496967 -0.122080 215 224 229
0.645383 -1.305599 -0.402941 180 189 188
0.625244 -1.318713 -0.382458 213 214 209
0.695226 -1.264252 -0.424871 201 207 205
0.698508 -1.209505 -0.382102 216 218 215
0.699688 -1.193948 -0.402392 219 224 227
0.697618 -1.107295 -0.368171 239 241 238
0.602659 -1.105397 -0.299828 223 231 234
0.601342 -1.041728 -0.427151 201 212 216
0.699568 -1.000636 -0.329703 238 242 243
0.625659 -1.013120 -0.297017 239 243 242
0.628514 -0.996861 -0.401778 205 216 220
0.699134 -0.906475 -0.317111 239 243 244
0.669600 -0.903409 -0.296749 240 244 245
0.695646 -0.898608 -0.427313 206 219 225
0.698452 -0.814891 -0.307860 236 241 244
0.688322 -0.810396 -0.299814 237 241 244
0.698825 -0.785466 -0.303931 236 241 244
0.699720 -0.702010 -0.267901 240 241 243
0.699938 -0.689875 -0.266298 238 242 243
0.609170 -0.629424 -0.199271 239 243 244
0.781217 -1.207763 -0.534044 189 199 201
0.783012 -1.210437 -0.439394 220 221 216
0.715518 -1.200970 -0.390313 225 226 221
0.709031 -1.103845 -0.500139 183 193 195
0.796997 -1.105038 -0.416517 240 244 243
0.768077 -1.105949 -0.395339 238 242 243
0.716734 -1.098756 -0.504447 182 192 194
0.796914 -1.025864 -0.401994 238 242 241
0.797222 -1.007834 -0.398727 238 242 242
0.771911 -0.994776 -0.502258 205 218 226
0.799805 -0.985154 -0.400731 236 240 241
0.796624 -0.905156 -0.375766 238 242 241
0.702488 -0.894369 -0.430415 205 218 226
0.799617 -0.811443 -0.366838 236 240 241
0.708016 -0.805053 -0.296803 239 243 244
0.707947 -0.799565 -0.400337 205 220 227
0.798538 -0.714950 -0.349584 241 242 244
0.740740 -0.701579 -0.297212 240 244 245
0.799955 -0.601095 -0.328425 236 240 241
0.753874 -0.631609 -0.296036 240 244 245
0.797943 -0.501098 -0.490464 177 173 162
0.797912 -0.593958 -0.323915 236 240 241
0.794726 -0.499152 -0.483273 177 173 162
0.891471 -1.402114 -0.524598 188 189 183
0.866834 -1.385508 -0.509837 181 185 184
0.883455 -1.216387 -0.601716 187 198 200
0.885233 -1.221820 -0.500662 221 222 217
0.877245 -1.216926 -0.494143 221 222 217
0.898604 -1.171731 -0.504977 221 221 219
0.892452 -1.100687 -0.482795 239 243 242
0.866031 -1.099719 -0.502966 217 228 234
0.896837 -1.004879 -0.463381 237 241 239
0.800391 -1.004139 -0.395263 237 241 242
0.832258 -0.997696 -0.515612 206 219 225
0.897776 -0.914980 -0.451869 238 242 241
0.820475 -0.913437 -0.399987 240 244 243
0.895680 -0.812053 -0.435756 233 239 237
0.844136 -0.813371 -0.397750 233 239 239
0.898364 -0.703285 -0.415997 240 240 240
0.861383 -0.701802 -0.395927 52 52 54
0.897741 -0.610827 -0.414033 236 238 237
0.881201 -0.601394 -0.395020 238 242 243
0.845317 -0.512281 -0.512688 178 176 164
0.833361 -0.506837 -0.499537 179 175 164
0.898074 -0.566616 -0.396547 239 243 244
0.812964 -0.499163 -0.475976 207 203 193
0.872773 1.353149 -0.502321 31 41 32
0.871991 1.363367 -0.497208 31 41 33
0.894007 1.450952 -0.602798 247 254 251
0.864644 1.486811 -0.544278 190 201 174
0.851559 1.463546 -0.498114 30 40 31
0.890114 1.500300 -0.539707 58 70 58
0.922447 -1.304783 -0.560376 197 202 198
0.988856 -1.255566 -0.607764 60 64 67
0.998414 -1.251766 -0.598256 56 60 63
0.987375 -1.198087 -0.653904 186 197 199
0.994145 -1.100004 -0.549386 240 242 241
0.916767 -1.105275 -0.494847 238 242 241
0.946081 -1.094757 -0.600158 208 221 227
0.997350 -1.016268 -0.533032 237 241 240
0.951224 -1.013291 -0.497868 236 240 239
0.994234 -0.917190 -0.517659 237 241 240
0.963841 -0.912044 -0.495156 239 241 240
0.991189 -0.824403 -0.501638 237 241 240
0.984227 -0.823099 -0.497052 237 241 240
0.980181 -0.717204 -0.611554 186 184 172
0.993892 -0.799213 -0.500638 238 242 243
0.999432 -0.700803 -0.474275 238 242 243
0.956972 -0.652334 -0.601518 188 186 174
0.941947 -0.639916 -0.597910 189 187 175
0.998257 -0.642168 -0.459071 239 243 244
0.913550 -0.604767 -0.396473 237 241 242
0.999333 -0.582434 -0.456419 239 243 244
0.916579 -0.561619 -0.399070 239 243 244
0.993668 1.396914 -0.680250 134 147 121
0.929270 1.397283 -0.467784 26 36 27
0.901581 1.446629 -0.604675 193 205 199
0.901725 1.459429 -0.513735 29 39 31
0.927249 1.449021 -0.498706 28 38 29
0.908954 1.520220 -0.555329 160 172 160
1.080292 -1.310672 -0.624261 217 218 213
1.099293 -1.217328 -0.724308 45 46 50
1.086431 -1.269834 -0.670311 54 58 61
1.042151 -1.211129 -0.596241 222 223 218
1.090512 -1.102214 -0.624452 237 239 236
1.071468 -1.122799 -0.598071 239 243 242
1.097419 -1.034094 -0.605714 237 241 240
1.094764 -1.004967 -0.599660 237 241 240
1.072649 -0.901557 -0.677237 167 164 155
1.098213 -0.905346 -0.582787 238 242 241
1.013982 -0.900909 -0.496433 232 237 240
1.072048 -0.806679 -0.657433 186 184 172
1.096424 -0.808460 -0.564879 238 242 241
1.004299 -0.805748 -0.499784 237 241 242
1.002273 -0.714651 -0.622251 187 185 173
1.097702 -0.740876 -0.540897 237 241 242
1.024390 -0.710265 -0.499784 177 179 178
1.096988 -0.654522 -0.536989 233 237 236
1.065907 -0.602311 -0.498653 238 242 243
1.092707 -0.597617 -0.509484 238 242 243
1.075752 -0.594917 -0.499918 238 242 243
1.032088 1.397443 -0.602371 33 43 35
1.011866 1.399194 -0.555727 28 38 29
1.082433 1.418928 -0.703556 164 186 171
1.004342 1.432213 -0.608598 196 206 195
1.000110 1.404251 -0.541151 27 37 29
1.001741 1.429684 -0.475750 25 35 27
1.199267 -1.459011 -0.703732 56 55 51
1.192388 -1.424328 -0.693226 91 90 86
1.193300 -1.390686 -0.689563 220 219 215
1.197509 -1.225339 -0.773890 33 34 38
1.193097 -1.205531 -0.698123 131 132 127
1.199631 -1.102401 -0.705638 153 150 143
1.193243 -1.106026 -0.689128 242 242 240
1.198146 -1.001680 -0.715833 177 173 164
1.194176 -1.007084 -0.682222 240 242 241
1.100211 -1.009654 -0.593199 236 240 239
1.198695 -0.949620 -0.702498 233 235 230
1.197185 -0.907768 -0.653105 235 239 240
1.110712 -0.918239 -0.596740 238 242 241
1.184978 -0.888633 -0.777506 189 185 174
1.193170 -0.800298 -0.632034 120 122 119
1.150084 -0.805437 -0.597795 50 52 52
1.195783 -0.720843 -0.619107 235 237 234
1.166140 -0.702945 -0.596697 59 59 57
1.197442 -0.680785 -0.604090 234 236 235
1.196670 -0.668978 -0.598384 234 236 235
1.135201 -0.599678 -0.525721 240 244 245
1.109349 1.397461 -0.731042 164 166 165
1.122572 1.399962 -0.605589 28 38 30
1.103840 1.414355 -0.700910 97 106 89
1.103322 1.412092 -0.606357 29 39 31
1.100946 1.410514 -0.588407 22 32 24
1.209413 -1.515177 -0.701269 196 196 192
1.204062 -1.430715 -0.702185 77 77 75
1.249596 -1.200605 -0.755817 150 147 138
1.200264 -1.244743 -0.699151 37 36 31
1.291149 -1.105772 -0.766397 179 175 164
1.215370 -1.105408 -0.693759 238 238 236
1.287717 -1.020372 -0.823757 187 183 172
1.225701 -1.001562 -0.796833 186 182 171
1.216666 -1.015569 -0.696990 241 241 240
1.293806 -0.902444 -0.708321 234 236 235
1.254873 -0.907305 -0.697473 233 237 236
1.211997 -0.911034 -0.595463 238 242 243
1.298852 -0.882594 -0.814401 84 79 76
1.299966 -0.843945 -0.707985 233 235 232
1.288165 -0.802935 -0.695964 235 237 234
1.248235 -0.801729 -0.599658 132 134 133
1.298313 -0.779679 -0.703399 232 234 231
1.291838 -0.780232 -0.683002 233 235 232
1.221474 -0.700839 -0.596358 244 246 243
1.295730 -0.658884 -0.655513 235 237 236
1.213702 -0.655130 -0.596977 232 236 235
1.299522 1.398821 -0.809477 140 148 127
1.201848 1.379188 -0.708387 31 42 34
1.200585 1.380245 -0.689609 31 41 33
1.272976 1.410717 -0.801062 99 112 102
1.201058 1.418757 -0.709479 31 41 33
1.200574 1.413206 -0.603187 25 35 27
1.204449 1.441621 -0.583407 26 36 28
1.287310 1.506225 -0.734641 44 55 49
1.392493 -1.100909 -0.856941 189 184 180
1.350653 -1.107050 -0.799217 184 181 175
1.396017 -1.036690 -0.804695 235 237 234
1.389166 -1.004560 -0.793610 233 235 232
1.376479 -0.907052 -0.801077 231 231 229
1.388869 -0.900770 -0.782451 232 234 231
1.318894 -0.909445 -0.695509 237 241 242
1.398823 -0.804435 -0.801573 230 232 229
1.394451 -0.809218 -0.798818 230 232 231
1.300013 -0.807607 -0.697322 239 243 242
1.395849 -0.797462 -0.792454 230 232 229
1.315531 -0.702036 -0.697410 250 250 248
1.399075 -0.643972 -0.708580 233 237 236
1.378308 -0.651787 -0.696306 232 236 235
1.301895 1.398654 -0.821768 94 106 92
1.301480 1.382742 -0.701325 26 36 28
1.304267 1.404877 -0.803871 138 146 122
1.300959 1.435034 -0.713771 31 41 33
1.301065 1.429108 -0.674427 29 39 31
1.303589 1.503210 -0.724183 45 52 44
1.492823 -1.113156 -0.918766 76 71 68
1.493962 -1.100511 -0.882231 238 235 230
1.431068 -1.088407 -0.910827 94 86 84
1.445693 -1.000039 -0.838098 232 234 231
1.411114 -1.017603 -0.799071 240 242 239
1.477832 -0.993892 -0.910870 121 116 110
1.412000 -0.946576 -0.830202 233 234 229
1.402048 -0.936942 -0.796881 231 233 230
1.498244 -0.808932 -0.821121 71 71 69
1.435453 -0.801227 -0.778940 250 250 248
1.492213 -0.799889 -0.810405 162 162 160
1.420543 -0.778606 -0.777189 159 159 157
1.419081 -0.732918 -0.697900 101 103 100
1.498809 -0.697748 -0.806178 93 95 90
1.486923 -0.636632 -0.780515 236 238 235
1.428309 -0.648991 -0.699074 239 243 244
1.432283 1.325002 -0.903271 138 147 128
1.421997 1.395677 -0.801569 33 43 35
1.400723 1.399385 -0.765434 29 39 31
1.446364 1.421846 -0.902895 158 158 132
1.402708 1.412674 -0.807071 33 43 35
1.400487 1.407713 -0.788844 33 43 35
1.408957 1.506627 -0.810938 159 165 153
1.597574 -1.205555 -1.001268 80 75 72
1.538926 -1.222226 -0.906245 237 236 231
1.579663 -1.189594 -1.011707 83 78 75
1.590126 -1.107163 -0.984306 109 102 96
1.516508 -1.102641 -0.896768 242 239 232
1.568745 -1.088068 -0.989343 113 106 100
1.523313 -1.041395 -0.894761 234 236 233
1.548219 -0.908505 -0.904640 233 234 229
1.551222 -0.901035 -0.892485 237 238 233
1.567808 -0.805000 -0.916084 232 234 229
1.560524 -0.800051 -0.895607 230 232 227
1.544159 -0.860416 -0.799343 242 244 243
1.594864 -0.766581 -0.923981 231 233 228
1.592731 -0.770247 -0.885720 252 253 248
1.543651 -0.711186 -0.793562 237 241 240
1.592278 -0.674214 -0.839099 235 237 234
1.512045 -0.645625 -0.794482 237 239 236
1.504936 1.325311 -0.900451 150 167 149
1.500116 1.357856 -0.877867 36 47 39
1.500987 1.411111 -0.903535 164 167 146
1.500835 1.458523 -0.814743 47 50 43
1.500660 1.472454 -0.762319 42 47 40
1.688785 -1.202842 -1.081208 121 113 110
1.689481 -1.210109 -0.995363 182 179 174
1.616897 -1.122100 -1.001466 110 103 97
1.643122 -1.172713 -0.998222 111 103 100
1.690191 -1.089832 -1.052913 188 184 173
1.633749 -1.071307 -0.964553 233 234 228
1.623323 -0.987162 -0.958519 233 234 229
1.697173 -0.843841 -1.013053 233 234 229
1.639200 -0.806347 -0.969096 231 232 227
1.616775 -0.804494 -0.894564 235 237 236
1.699283 -0.747323 -1.003083 232 233 228
1.694887 -0.709319 -0.941605 113 115 112
1.605785 -0.758624 -0.885137 226 226 224
1.693629 -0.687207 -0.932468 228 230 227
1.699708 -0.686615 -0.892178 236 238 235
1.693854 1.397364 -1.023196 240 240 238
1.647657 1.396412 -0.901316 48 50 45
1.618931 1.399833 -0.862378 48 50 45
1.639284 1.448086 -1.000848 180 179 159
1.600079 1.432088 -0.903527 50 57 50
1.600633 1.413951 -0.863441 48 51 44
1.623580 1.537749 -0.923410 147 157 149
1.606984 1.515065 -0.887670 48 53 46
1.779763 -1.300556 -1.044647 173 168 162
1.762148 -1.204129 -1.136803 162 158 147
1.766207 -1.205792 -1.097167 160 156 147
1.702351 -1.249050 -0.995158 201 198 194
1.795398 -1.139078 -1.137813 166 162 151
1.798023 -1.152393 -1.097462 164 160 151
1.725135 -1.101274 -0.994144 240 240 232
1.793284 -1.052423 -1.065603 236 233 224
1.711726 -1.075197 -0.991600 240 242 239
1.743273 -0.901138 -1.069377 175 171 159
1.700719 -0.935786 -0.992644 240 241 236
1.759949 -0.801728 -1.049343 231 232 227
1.779280 -0.809556 -0.996086 228 230 227
1.758963 -0.701424 -1.037178 229 230 224
1.739039 -0.702776 -0.991151 228 230 227
1.720659 -0.742070 -0.894481 238 242 241
1.797384 -0.679705 -1.041548 228 230 227
1.788450 -0.667022 -0.993065 190 192 189
1.735737 -0.683975 -0.896319 236 238 235
1.757877 -0.596853 -1.003232 233 234 229
1.726905 -0.591809 -0.993607 231 233 228
1.704377 1.398823 -1.021078 240 240 238
1.786448 1.398615 -0.938418 44 49 43
1.704942 1.438523 -1.004053 213 219 215
1.700956 1.458201 -0.930751 49 54 47
1.700128 1.441888 -0.879603 48 50 45
1.762248 1.533521 -1.004214 162 172 173
1.762031 1.518345 -0.967751 54 60 60
1.865562 -1.356680 -1.149685 142 139 130
1.802596 -1.302290 -1.098534 148 143 139
1.835954 -1.210966 -1.204263 181 179 167
1.803254 -1.291667 -1.123976 150 147 138
1.852682 -1.209857 -1.093517 240 239 233
1.817315 -1.105227 -1.141794 170 166 155
1.815689 -1.104274 -1.099021 179 175 164
1.893795 -1.000574 -1.139361 183 179 170
1.847443 -1.028434 -1.099692 221 218 209
1.897205 -0.998186 -1.131149 194 190 181
1.841501 -0.946382 -1.083154 238 240 235
1.896179 -0.819001 -1.150497 98 92 92
1.821507 -0.847783 -1.096657 67 61 61
1.824556 -0.807961 -0.995503 213 215 212
1.899113 -0.730542 -1.130397 232 231 226
1.837023 -0.763483 -1.094266 231 232 226
1.854607 -0.779504 -0.995593 231 233 230
1.887650 -0.690053 -1.113012 230 231 225
1.898905 -0.620741 -1.071794 229 231 226
1.811017 -0.658290 -0.997024 221 225 224
1.807236 1.399544 -1.028378 208 211 207
1.801032 1.390082 -0.950065 46 51 45
1.878031 1.461199 -1.101322 238 244 244
1.801236 1.417916 -1.010689 63 68 64
1.804628 1.409361 -0.995495 52 57 51
1.803004 1.500784 -1.029584 177 181 180
1.800080 1.504170 -0.930747 56 58 53
1.972182 -1.400803 -1.336042 176 172 163
1.975457 -1.409299 -1.298293 174 171 162
1.991821 -1.485642 -1.188914 244 240 231
1.988108 -1.302585 -1.352035 181 179 167
1.990917 -1.311665 -1.288442 176 176 166
1.978754 -1.307322 -1.193742 173 170 161
1.998398 -1.263068 -1.348086 182 180 168
1.997398 -1.212414 -1.200565 189 186 177
1.995432 -1.204794 -1.188023 191 188 179
1.958317 -1.185851 -1.172172 234 234 226
1.955987 -1.051848 -1.150194 241 240 235
1.911631 -0.997361 -1.140136 181 177 168
1.917368 -0.800908 -1.162813 98 92 92
1.959107 -0.817674 -1.096215 235 237 234
1.992503 -0.703608 -1.195399 172 172 162
1.976497 -0.749416 -1.094334 160 162 159
1.990647 -0.640370 -1.162824 225 225 222
1.913795 -0.602092 -1.088957 225 227 222
1.918284 -0.551039 -1.108758 159 160 155
1.916161 -0.583665 -1.089889 228 230 225
1.906371 1.457748 -1.101320 159 180 179
1.900646 1.475714 -1.012909 55 57 54
1.907926 1.478656 -0.950514 54 56 53
2.049080 -1.526454 -1.224333 233 230 221
2.080266 -1.410425 -1.379018 163 159 147
2.098168 -1.324909 -1.401961 166 162 150
2.099883 -1.332999 -1.390678 166 162 150
2.058886 -1.323265 -1.227224 225 222 215
2.018034 -1.312304 -1.198772 187 187 177
2.091578 -1.294640 -1.424704 199 197 185
2.018047 -1.211761 -1.338586 193 191 179
2.093228 -1.270022 -1.254726 232 232 224
2.025413 -1.211366 -1.198926 242 239 230
2.059815 -1.108402 -1.310013 193 190 179
2.062993 -1.105247 -1.299976 192 189 180
2.006905 -1.157306 -1.187227 229 230 224
2.088461 -1.089330 -1.269331 162 158 155
2.029036 -1.081180 -1.195560 240 239 234
2.098668 -0.841296 -1.202163 235 237 234
2.081235 -0.804672 -1.183388 236 238 235
2.086931 -0.762374 -1.210000 250 251 246
2.089381 -0.720169 -1.181103 235 236 231
2.001602 -0.738998 -1.099457 126 127 122
2.006912 -0.679437 -1.203380 174 174 164
2.021814 -0.648893 -1.191299 231 231 223
2.032974 -0.668956 -1.088738 238 240 236
2.055982 1.398097 -1.185624 234 242 245
2.001578 1.442001 -1.107805 62 64 61
2.005842 1.444563 -1.019315 54 56 53
2.191294 -1.646626 -1.311508 225 222 213
2.119604 -1.401516 -1.306648 161 157 146
2.105394 -1.428866 -1.298019 160 156 145
2.103329 -1.302323 -1.404990 177 173 162
2.105030 -1.310476 -1.393698 174 170 159
2.147460 -1.332655 -1.299751 167 167 159
2.108638 -1.266519 -1.407868 179 175 163
2.132241 -1.213341 -1.385155 180 177 162
2.150461 -1.200332 -1.289217 236 233 224
2.153025 -1.115287 -1.348737 79 73 75
2.168544 -1.112384 -1.299784 202 199 194
2.192508 -1.008197 -1.325405 97 94 89
2.169383 -1.038172 -1.299922 132 129 124
2.196748 -0.998422 -1.327947 97 94 89
2.148404 -0.957141 -1.284266 228 227 223
2.114106 -0.827030 -1.212976 236 238 235
2.100002 -0.804190 -1.195252 239 241 238
2.178118 -0.712205 -1.244340 51 52 47
2.116194 -0.708709 -1.186823 233 234 229
2.195070 -0.609598 -1.248346 243 245 240
2.149560 -0.649485 -1.195959 240 241 235
2.198341 -0.599979 -1.251165 240 242 237
2.101004 1.385721 -1.208147 237 241 240
2.122691 1.396392 -1.113111 57 59 56
2.102408 1.416553 -1.138152 61 63 60
2.100314 1.404663 -1.097194 57 59 56
2.252410 -1.627833 -1.351955 167 163 152
2.298307 -1.516981 -1.413879 170 166 155
2.269532 -1.500397 -1.381964 170 166 155
2.290649 -1.406417 -1.413186 184 180 169
2.251075 -1.411763 -1.373521 183 179 168
2.299895 -1.363062 -1.407429 184 180 169
2.294676 -1.323804 -1.392262 182 180 168
2.231111 -1.208480 -1.420671 196 193 184
2.267788 -1.277301 -1.350801 199 197 185
2.211944 -1.230897 -1.298997 239 238 233
2.262729 -1.171690 -1.404866 76 70 72
2.279423 -1.158336 -1.390580 75 69 71
2.295386 -0.900394 -1.412029 160 160 152
2.284285 -0.924679 -1.396257 158 158 150
2.299881 -0.821541 -1.442520 165 165 157
2.299958 -0.808276 -1.325147 237 239 238
2.289973 -0.808418 -1.295152 105 106 102
2.299081 -0.792472 -1.315776 234 236 235
2.258979 -0.730423 -1.277283 72 73 67
2.200604 -0.702481 -1.199144 245 247 244
2.265956 -0.607844 -1.236244 241 242 237
2.207615 -0.636697 -1.197669 241 240 236
2.217429 -0.539861 -1.257212 235 236 231
2.290248 1.389136 -1.302958 145 171 188
2.205848 1.386821 -1.212204 63 65 60
2.200196 1.384322 -1.186874 61 63 60
2.390081 -1.804536 -1.492743 164 160 149
2.385392 -1.718140 -1.492742 166 163 152
2.305681 -1.700185 -1.397429 163 159 148
2.358231 -1.653580 -1.462387 167 165 153
2.307808 -1.686468 -1.399381 164 160 149
2.339581 -1.505038 -1.469832 183 181 169
2.386753 -1.404490 -1.505038 185 183 171
2.376565 -1.411971 -1.497951 185 182 170
2.392109 -1.393303 -1.509027 185 183 171
2.392115 -1.335183 -1.482835 186 184 172
2.303800 -1.310068 -1.385490 183 181 169
2.329711 -1.294429 -1.389590 167 163 154
2.389861 -1.103222 -1.479922 94 88 90
2.305166 -1.164982 -1.380656 73 67 69
2.389724 -1.007005 -1.523715 168 168 160
2.395523 -1.034715 -1.491860 163 162 157
2.393640 -0.988109 -1.537601 172 169 160
2.306818 -0.902559 -1.407810 159 159 151
2.306336 -0.921328 -1.397873 192 193 188
2.335748 -0.800775 -1.451129 166 166 158
2.385087 -0.804366 -1.343232 76 76 74
2.350456 -0.784417 -1.458712 167 167 159
2.399790 -0.711164 -1.350986 173 174 169
2.315004 -0.704332 -1.281686 242 243 238
2.394594 -0.621339 -1.334832 140 142 137
2.327165 -0.625166 -1.282060 136 137 132
2.307778 1.386277 -1.315379 138 164 181
2.302047 1.389539 -1.299016 154 170 178
2.499055 -1.981236 -1.512363 132 128 119
2.421181 -1.882129 -1.480453 169 163 157
2.490268 -1.002633 -1.560328 172 169 160
2.478010 -1.025200 -1.491960 240 239 234
2.498869 -0.940820 -1.600899 177 174 165
2.488019 -0.948405 -1.594525 177 175 163
2.497957 -0.990431 -1.486896 192 192 184
2.466644 -0.827173 -1.417031 239 239 237
2.487777 -0.703789 -1.418581 236 238 233
2.458384 -0.715661 -1.398920 211 212 208
2.438261 -0.629806 -1.372243 237 239 234
2.401091 1.341643 -1.314104 65 67 62
2.554529 -2.026826 -1.562606 126 119 113
2.585162 -1.005105 -1.592364 174 171 162
2.565197 -0.916905 -1.627824 179 176 169
2.511468 -0.956519 -1.596613 175 172 163
2.519775 -0.972142 -1.491683 191 191 183
2.598386 -0.878222 -1.495452 239 239 237
2.535187 -0.704119 -1.457651 238 238 236
2.561914 -0.676088 -1.466568 238 238 236
2.592889 -0.587616 -1.475285 236 236 234
2.580745 1.517824 -1.426788 69 75 75
2.654886 -2.141663 -1.624200 106 99 93
2.674125 -1.001824 -1.619183 175 172 163
2.684406 -1.012241 -1.599558 228 227 222
2.653301 -0.901197 -1.668113 179 179 167
2.686628 -0.923979 -1.559489 241 240 235
2.664390 -0.892556 -1.674480 179 179 167
2.651283 1.494100 -1.516071 147 160 168
2.604483 1.498791 -1.432404 73 73 71
2.604471 1.505108 -1.418698 73 73 71
2.724045 -2.502137 -1.857105 83 75 72
2.799673 -2.480518 -1.951306 75 70 67
2.755018 -2.484807 -1.899116 79 74 71
2.797542 -2.480944 -1.795826 74 69 66
2.794108 -2.310202 -1.762584 109 102 96
2.772074 -2.249010 -1.749857 112 104 101
2.771015 -1.000107 -1.649459 228 227 222
2.748150 -0.924269 -1.700014 181 181 171
2.704296 -0.907524 -1.686151 178 178 168
2.742845 -0.937553 -1.594747 241 240 235
2.717743 1.472421 -1.563615 142 153 159
2.700897 1.431229 -1.478944 76 77 72
2.855811 -2.420817 -2.013515 124 114 112
2.862146 -2.414479 -1.998013 123 113 111
2.850073 -2.404310 -1.891157 113 106 100
2.840551 -2.437803 -1.789458 68 63 59
2.894831 -2.378731 -1.982243 125 118 112
2.870687 -2.328797 -1.888487 118 111 105
2.815328 -2.302128 -1.795334 113 105 102
2.825378 -2.291625 -1.802509 113 106 98
2.861720 -1.001188 -1.702404 227 226 221
2.858369 -1.009942 -1.687113 228 229 224
2.894613 -0.974241 -1.777069 191 191 182
2.825408 -0.987903 -1.694285 235 234 229
2.884861 1.398788 -1.628644 104 108 107
2.813065 1.422022 -1.606582 134 144 146
2.805590 1.413484 -1.589132 136 144 146
2.999875 -1.007710 -1.842207 190 190 182
2.971548 -1.012668 -1.781436 222 223 217
2.994958 -0.971227 -1.882672 193 193 183
2.946962 -0.994416 -1.795000 191 191 183
2.997460 1.399003 -1.776176 59 64 65
2.917074 1.397394 -1.649582 129 133 132
2.968473 1.439373 -1.735231 130 136 136
2.964804 1.420903 -1.691142 131 140 140
3.078632 -1.016320 -1.905505 192 192 184
3.047698 -1.018188 -1.886829 191 191 182
3.049746 -1.025097 -1.798562 226 227 222
3.086269 -0.963873 -1.938590 193 193 183
3.029576 -0.998377 -1.890078 192 192 184
3.032261 1.389349 -1.739887 111 119 121
3.016070 1.396211 -1.686758 97 101 100
3.008123 1.434484 -1.747099 117 125 127
3.002611 1.456727 -1.627176 94 95 90
3.190710 -1.000774 -1.972706 192 192 182
3.160131 -1.035997 -1.893462 224 225 219
3.161893 -0.976078 -1.969833 193 193 183
3.289487 -1.018015 -2.000816 192 192 184
3.252310 -1.006376 -1.994133 192 192 184
3.269604 -0.996911 -2.004048 193 193 183
3.226031 -0.982675 -1.993181 193 193 183
3.597224 -0.604677 -2.020440 223 224 219
3.588450 -0.600822 -1.998966 223 224 219
3.595085 -0.585915 -2.003753 223 224 219
3.593722 -0.567565 -1.987682 224 224 222
3.613246 -0.612040 -2.063162 225 224 220
3.677084 -0.509097 -2.107082 223 224 219
3.666595 -0.505565 -2.084001 223 224 219
3.695569 -0.444696 -2.104729 223 222 218
3.696541 -0.427357 -2.089380 222 223 218
3.730516 -0.402062 -2.145084 220 221 216
3.707307 -0.412869 -2.096559 221 222 217
3.786117 -0.327574 -2.165059 219 218 214
3.726978 -0.382806 -2.092980 221 222 217
