ply
format ascii 1.0
element vertex 1206
property float x
property float y
property float z
property uchar red
property uchar green
property uchar blue
end_header
-1.489616 -1.407552 -0.328436 75 84 91
-1.498863 -1.400789 -0.251221 225 221 210
-1.422375 -1.400112 -0.184771 48 57 64
-1.498658 -1.420640 -0.003836 48 55 63
-1.492813 -1.412440 0.097935 49 58 67
-1.485244 -1.406529 0.199012 55 64 73
-1.492530 -1.402353 0.299322 53 63 72
-1.429040 -1.403239 0.398175 59 68 75
-1.445225 -1.406694 0.497355 188 182 170
-1.460429 -1.400107 0.597346 51 60 69
-1.482203 -1.400219 0.616542 45 54 63
-1.427155 -1.400158 0.798530 52 60 67
-1.495648 -1.402367 0.896772 35 42 48
-1.477424 -1.406178 0.996715 47 54 62
-1.452787 -1.405482 1.099709 44 53 62
-1.476390 -1.401097 1.199950 58 62 71
-1.499655 -1.400064 1.242085 67 72 78
-1.472719 -1.400248 1.397081 192 189 173
-1.488725 -1.400487 1.438441 58 67 75
-1.458905 -1.406391 1.597062 75 86 92
-1.497120 -1.401239 1.629770 76 87 93
-1.426539 -1.411711 1.798326 151 151 148
-1.405040 -1.408950 1.893555 98 108 118
-1.413289 -1.410622 1.993386 102 112 122
-1.420151 -1.410541 2.096894 107 117 127
-1.456130 -1.410941 2.198059 101 111 121
-1.403729 -1.410328 2.296641 102 116 127
-1.487608 -1.412095 2.396812 97 111 124
-1.463627 -1.411644 2.495730 97 111 124
-1.438123 -1.410990 2.599755 94 110 123
-1.444437 -1.411133 2.698457 93 109 122
-1.468098 -1.411663 2.796660 92 108 121
-1.492761 -1.411951 2.899612 90 106 119
-1.465905 -1.400025 2.945984 82 96 109
-1.490398 -1.400319 3.099298 81 97 110
-1.408177 -1.401782 3.174328 83 99 114
-1.411606 -1.401935 3.290237 78 96 110
-1.489453 -1.402643 3.399625 78 91 106
-1.417579 -1.402573 3.478524 72 86 97
-1.479736 -1.426479 3.599625 38 51 68
-1.492235 -1.402901 3.695060 37 50 66
-1.411505 -1.405912 3.720291 35 51 66
-1.492843 -1.403835 3.897401 67 80 93
-1.462532 -1.432504 3.981103 31 43 57
-1.457250 -1.413458 4.099297 29 41 55
-1.417558 -1.402996 4.190761 28 42 55
-1.400099 -1.407312 4.273556 62 74 86
-1.402718 -1.408056 4.369176 64 73 88
-1.404468 -1.407948 4.465260 59 71 83
-1.406554 -1.408080 4.565897 58 68 80
-1.407728 -1.407320 4.667020 59 69 79
-1.406830 -1.404619 4.764516 60 68 79
-1.415986 -1.401533 4.879465 70 80 89
-1.404440 -1.368658 -3.200922 121 121 108
-1.403214 -1.381938 -3.191731 119 119 106
-1.424065 -1.381458 -3.095829 52 58 58
-1.405445 -1.304740 -2.600909 53 60 62
-1.412519 -1.312403 -2.557102 17 27 37
-1.486600 -1.314795 -2.419719 169 169 171
-1.473122 -1.353953 -2.399254 113 114 119
-1.494390 -1.307589 -2.253962 24 34 45
-1.489666 -1.337460 -2.191477 16 26 36
-1.492704 -1.305475 -2.093997 93 93 95
-1.494397 -1.353448 -1.991510 10 18 29
-1.491289 -1.343993 -1.824207 7 17 27
-1.499119 -1.305639 -1.742127 34 42 49
-1.467079 -1.317499 -1.695209 33 43 55
-1.494581 -1.366505 -1.597793 126 128 129
-1.497022 -1.378175 -1.404044 28 37 52
-1.499524 -1.378795 -1.370144 30 40 52
-1.499331 -1.384099 -1.273309 34 43 58
-1.499384 -1.356927 -1.158186 37 50 66
-1.498339 -1.358410 -1.076682 65 78 95
-1.498465 -1.358423 -0.987378 68 84 100
-1.497813 -1.358861 -0.861469 66 79 95
-1.499876 -1.355748 -0.758704 58 70 86
-1.438008 -1.399984 -0.640547 101 110 115
-1.497845 -1.399925 -0.539052 108 117 122
-1.403223 -1.399868 -0.415608 75 82 90
-1.443251 -1.324300 -0.301750 74 85 91
-1.498521 -1.396712 -0.204463 54 63 70
-1.492267 -1.398530 -0.101299 47 56 63
-1.499573 -1.399352 -0.010664 46 55 62
-1.496836 -1.384825 0.098368 36 45 60
-1.498548 -1.379019 0.192552 32 41 56
-1.490515 -1.375479 0.293944 19 27 40
-1.499834 -1.311146 0.392809 2 6 15
-1.495177 -1.312975 0.464459 120 124 127
-1.480621 -1.300251 0.571729 220 207 190
-1.467526 -1.306296 0.697725 219 208 190
-1.473333 -1.382746 0.798350 25 35 47
-1.481353 -1.369936 0.898614 3 4 9
-1.478522 -1.367093 0.995657 24 33 48
-1.473031 -1.361366 1.099411 25 37 50
-1.445696 -1.348926 1.199741 33 41 52
-1.443292 -1.322165 1.244945 32 41 50
-1.481161 -1.365756 1.397639 37 47 59
-1.483909 -1.351205 1.492293 46 54 64
-1.477959 -1.327830 1.563632 52 52 54
-1.412167 -1.356152 1.692680 58 68 81
-1.463555 -1.353310 1.799111 140 145 149
-1.416822 -1.356925 1.897849 62 78 94
-1.409338 -1.365630 1.981874 54 66 80
-1.475676 -1.363763 2.098474 55 67 81
-1.409999 -1.363921 2.180472 57 70 86
-1.410521 -1.363105 2.292729 54 67 82
-1.410312 -1.361822 2.382284 51 67 83
-1.410669 -1.361025 2.478974 50 66 82
-1.487884 -1.373195 2.591474 51 64 81
-1.490825 -1.368140 2.692339 48 64 80
-1.453091 -1.362872 2.799895 55 68 84
-1.490062 -1.358665 2.895234 53 69 85
-1.496932 -1.300870 2.996431 52 67 86
-1.476484 -1.300659 3.063132 54 69 88
-1.412013 -1.300188 3.180114 48 64 80
-1.495786 -1.300964 3.290102 49 62 79
-1.403827 -1.306837 3.395517 28 42 53
-1.408826 -1.303902 3.499144 34 46 58
-1.402501 -1.304243 3.576990 33 45 57
-1.425689 -1.300442 3.693971 34 44 56
-1.475785 -1.300321 3.786015 30 40 52
-1.456372 -1.311702 3.895166 43 57 74
-1.433062 -1.314276 3.995533 44 57 74
-1.414492 -1.306590 4.094027 19 29 39
-1.409717 -1.306476 4.187406 19 29 38
-1.404283 -1.305897 4.284721 19 29 39
-1.418410 -1.304932 4.391642 22 32 42
-1.419446 -1.304018 4.437508 28 39 51
-1.400759 -1.317892 4.594584 25 35 45
-1.400087 -1.320664 4.663359 25 35 44
-1.414881 -1.319226 4.790951 121 101 76
-1.404033 -1.319625 4.897789 155 128 90
-1.412845 -1.303148 4.935704 155 129 92
-1.400941 -1.300181 5.083498 154 145 136
-1.401897 -1.280165 -2.612080 27 37 49
-1.400094 -1.299208 -2.598248 17 27 39
-1.402438 -1.283313 -2.477287 16 26 38
-1.488514 -1.251562 -2.303877 33 45 57
-1.494470 -1.248934 -2.291070 33 45 57
-1.496132 -1.239342 -2.137159 120 120 120
-1.450564 -1.201463 -2.099119 110 110 111
-1.418035 -1.251672 -1.998066 131 121 111
-1.459561 -1.230999 -1.709945 104 105 109
-1.425576 -1.202312 -1.699591 19 25 33
-1.486111 -1.206406 -1.561348 216 216 214
-1.400889 -1.279392 -1.499154 43 52 66
-1.465462 -1.257352 -0.300601 47 54 62
-1.474224 -1.202757 -0.232086 35 39 41
-1.498730 -1.208286 0.194988 13 20 29
-1.484760 -1.206138 0.299699 210 194 178
-1.495138 -1.200854 0.324585 205 189 173
-1.421935 -1.223995 0.497942 219 203 187
-1.490653 -1.218696 0.596259 200 187 171
-1.434192 -1.204776 0.671329 204 188 175
-1.467004 -1.206434 0.778154 19 29 41
-1.489911 -1.206033 0.892651 19 28 43
-1.485801 -1.200498 0.948372 29 40 45
-1.401616 -1.259610 1.189417 32 42 50
-1.414097 -1.216636 1.292660 128 132 131
-1.474581 -1.290518 1.367715 83 90 98
-1.430940 -1.278404 1.404195 50 60 72
-1.442069 -1.265869 1.540691 106 106 106
-1.466153 -1.229073 1.691252 125 125 123
-1.478873 -1.288254 1.710168 125 127 124
-1.496617 -1.295336 3.066677 44 57 73
-1.407133 -1.296978 3.182489 39 51 63
-1.411292 -1.293504 3.287443 40 52 66
-1.403354 -1.292301 3.365355 40 49 64
-1.409207 -1.290382 3.488295 36 52 65
-1.400570 -1.288867 3.576293 35 51 64
-1.406665 -1.299684 3.690518 32 44 56
-1.417957 -1.298955 3.777650 33 43 55
-1.409676 -1.297218 3.865292 31 41 53
-1.402003 -1.296676 3.961065 28 39 51
-1.414756 -1.296569 4.065399 28 38 50
-1.409353 -1.299112 4.181560 26 36 46
-1.405676 -1.299413 4.239523 26 36 46
-1.437535 -1.290509 4.398439 32 46 57
-1.409536 -1.291202 4.484193 34 49 60
-1.405437 -1.292086 4.568967 38 52 65
-1.451759 -1.219170 4.698442 123 99 65
-1.413853 -1.204409 4.781514 107 94 72
-1.402660 -1.216156 4.897947 119 116 109
-1.406228 -1.203970 4.951906 135 110 80
-1.407867 -1.218338 5.040638 146 129 100
-1.410222 -1.207260 5.141873 157 151 141
-1.401057 -1.215194 5.202279 215 171 108
-1.418457 -1.183517 -2.389519 182 164 134
-1.495184 -1.125909 -2.211158 66 71 74
-1.487654 -1.106857 -2.110735 99 100 105
-1.491014 -1.109245 -2.043010 94 91 89
-1.409893 -1.195789 -1.995572 32 40 42
-1.490229 -1.100386 -1.833375 14 22 33
-1.400471 -1.108815 -1.716922 17 25 36
-1.403904 -1.164074 -1.654174 94 95 100
-1.412110 -1.174127 -1.570522 19 29 39
-1.413206 -1.126458 -1.480898 211 216 212
-1.480979 -1.118324 -1.360430 27 27 32
-1.498546 -1.104119 -0.235927 3 8 14
-1.497486 -1.199813 0.271615 203 190 173
-1.438865 -1.110851 0.372177 198 182 167
-1.489107 -1.185182 0.499156 154 157 156
-1.484479 -1.169746 0.597501 206 195 177
-1.443348 -1.108228 0.692123 183 168 153
-1.494717 -1.115395 0.735837 180 164 151
-1.493393 -1.197160 0.896533 22 32 44
-1.478646 -1.103236 0.992763 16 30 41
-1.421192 -1.105709 1.061446 40 48 58
-1.491093 -1.191440 1.151523 17 30 42
-1.423076 -1.117009 1.593604 100 100 100
-1.482790 -1.155667 1.676962 113 97 97
-1.449097 -1.145297 4.473409 140 118 81
-1.452557 -1.108889 4.695787 128 101 69
-1.416384 -1.116079 4.786392 114 97 76
-1.441410 -1.104052 4.853440 140 115 82
-1.401822 -1.116839 4.991636 90 81 76
-1.410878 -1.112151 5.063209 149 133 101
-1.413657 -1.106036 5.174740 164 157 149
-1.486764 -1.089578 -2.109184 112 102 90
-1.470724 -1.035368 -2.068165 82 85 83
-1.494146 -1.005901 -1.985200 104 93 80
-1.496727 -1.071734 -1.809402 20 24 35
-1.493558 -1.011494 -1.775452 14 26 38
-1.423807 -1.008129 -1.690182 34 35 40
-1.404031 -1.073078 -1.597728 7 9 6
-1.479743 -1.028492 -1.300717 73 72 77
-1.494704 -1.000027 -1.272183 74 75 77
-1.484234 -1.015121 -0.214734 3 5 16
-1.492617 -1.003700 -0.140136 147 148 152
-1.497343 -1.005621 -0.084495 60 61 65
-1.447008 -1.011641 0.379957 190 177 161
-1.466426 -1.081675 0.442057 160 162 157
-1.414063 -1.004260 0.593347 166 155 137
-1.478728 -1.004164 0.656035 158 145 135
-1.467168 -1.045488 0.748635 205 181 153
-1.407321 -1.043590 0.899654 34 39 42
-1.457164 -1.001545 0.940576 19 29 39
-1.470448 -1.097487 1.042747 13 25 37
-1.434797 -1.001459 4.699269 130 104 69
-1.414158 -1.000263 4.772528 118 99 79
-1.438025 -1.001575 4.836372 142 119 84
-1.422392 -1.009448 4.969088 127 124 119
-1.405621 -1.018115 5.003383 89 80 75
-1.413749 -1.026843 5.188507 164 157 151
-1.445816 -0.933559 -1.915300 211 194 175
-1.459632 -0.921825 -1.805517 36 45 60
-1.444528 -0.907409 -1.777787 38 41 53
-1.467595 -0.946742 -1.651600 23 20 27
-1.466861 -0.953138 -1.561091 18 18 26
-1.486279 -0.929990 -1.493832 139 74 86
-1.494432 -0.925339 -1.300081 85 83 86
-1.497148 -0.926956 -1.293944 87 85 88
-1.491886 -0.914458 -0.401523 38 85 146
-1.499889 -0.933103 -0.302157 55 105 171
-1.498513 -0.937837 -0.202973 17 49 96
-1.499857 -0.952859 -0.192456 17 46 88
-1.498744 -0.992737 -0.067887 114 114 116
-1.480994 -0.913095 0.395963 151 141 132
-1.490610 -0.929276 0.400300 153 143 131
-1.413847 -0.902521 0.599960 147 139 128
-1.489355 -0.906824 0.650175 85 78 72
-1.467318 -0.990492 0.718220 164 152 143
-1.499492 -0.912901 0.898710 4 12 25
-1.494039 -0.901669 0.962975 7 15 26
-1.496226 -0.908283 1.089312 43 44 48
-1.496165 -0.901842 1.114549 44 43 48
-1.486957 -0.957239 1.267142 56 18 19
-1.449595 -0.974538 1.326705 177 107 115
-1.498881 -0.988299 1.416366 74 75 75
-1.433068 -0.910900 4.688693 135 107 68
-1.413096 -0.908532 4.764107 119 101 80
-1.440109 -0.978720 4.843493 143 120 85
-1.426123 -0.961837 4.982206 129 124 120
-1.409267 -0.970112 5.016476 82 73 68
-1.408780 -0.916221 5.184280 167 162 156
-1.496704 -0.823728 -3.186852 173 165 144
-1.497419 -0.803766 -3.012726 100 104 100
-1.463310 -0.800385 -2.996039 217 210 184
-1.467540 -0.856207 -2.757276 215 211 200
-1.473239 -0.812173 -2.653232 207 201 187
-1.411009 -0.805952 -2.575911 193 189 180
-1.418491 -0.868900 -1.802738 210 193 173
-1.441881 -0.898418 -1.749066 107 63 71
-1.405114 -0.873967 -1.642226 176 92 102
-1.402406 -0.881173 -1.549364 10 11 16
-1.462171 -0.827622 -1.498910 9 17 28
-1.498174 -0.891694 -1.303554 141 56 63
-1.494647 -0.800347 -1.232416 91 27 36
-1.497192 -0.804314 -0.305048 35 36 40
-1.461725 -0.805596 -0.202058 21 22 26
-1.499954 -0.812959 -0.138092 44 45 49
-1.453153 -0.819624 0.397636 78 78 77
-1.496176 -0.809275 0.454524 136 140 141
-1.460514 -0.803934 0.596447 78 77 75
-1.427506 -0.825016 0.686661 131 124 116
-1.472133 -0.801859 0.727616 165 158 142
-1.401311 -0.812066 0.980158 105 63 70
-1.401386 -0.832487 1.035078 206 134 136
-1.403174 -0.896173 1.174892 56 10 12
-1.458803 -0.884000 1.205019 220 131 127
-1.423969 -0.807638 1.333351 64 83 98
-1.488309 -0.859345 1.405634 67 86 101
-1.432580 -0.821541 4.682563 136 108 70
-1.409637 -0.815162 4.746848 122 105 80
-1.404960 -0.816902 4.891576 130 125 119
-1.402134 -0.815077 4.901064 135 111 75
-1.414086 -0.800692 5.085502 137 125 106
-1.413401 -0.809884 5.101832 164 152 130
-1.469804 -0.756731 -3.030527 160 149 127
-1.493849 -0.772182 -2.960820 125 127 124
-1.498496 -0.711680 -2.809668 145 144 139
-1.462739 -0.799381 -2.620028 199 196 179
-1.408977 -0.767197 -2.513055 18 26 36
-1.457241 -0.745469 -2.444955 127 143 176
-1.496070 -0.779472 -2.380696 54 65 69
-1.466236 -0.781891 -2.293301 230 228 219
-1.430301 -0.700090 -1.960973 248 248 248
-1.443063 -0.700168 -1.893831 248 248 248
-1.457643 -0.797983 -1.640096 78 75 69
-1.418796 -0.719867 -1.501800 25 23 26
-1.498443 -0.703440 -1.419785 5 11 23
-1.498213 -0.702965 -1.224336 75 23 35
-1.479602 -0.702514 -1.160718 85 27 39
-1.499644 -0.746255 -0.304116 5 10 14
-1.480535 -0.703708 -0.206602 1 2 7
-1.490508 -0.712563 -0.191802 2 3 8
-1.458630 -0.705601 0.197776 99 95 92
-1.433334 -0.706929 0.292924 48 41 30
-1.489126 -0.700013 0.395574 220 213 203
-1.469283 -0.700493 0.416369 138 150 163
-1.411643 -0.702040 0.573397 253 243 231
-1.436869 -0.700740 0.680976 243 235 225
-1.436536 -0.701527 0.751903 250 241 230
-1.465456 -0.703723 0.841175 242 230 212
-1.493080 -0.702055 0.905520 251 242 235
-1.491035 -0.704169 1.082645 246 246 246
-1.498833 -0.705405 1.163422 236 235 213
-1.487982 -0.709177 1.321228 72 73 75
-1.421403 -0.714198 1.596948 40 53 68
-1.456549 -0.726225 1.693163 41 50 62
-1.432125 -0.710071 4.675459 137 111 74
-1.409806 -0.702196 4.741875 126 108 83
-1.423907 -0.711885 4.865003 142 126 103
-1.409871 -0.719847 4.907498 137 132 126
-1.437665 -0.714197 5.064824 151 127 91
-1.419462 -0.720931 5.105481 139 127 105
-1.467293 -0.653650 -2.710663 146 145 139
-1.412532 -0.600695 -2.622911 147 146 142
-1.464878 -0.607668 -2.596168 145 146 140
-1.403469 -0.698825 -2.365959 130 146 177
-1.481131 -0.680192 -2.215033 102 106 109
-1.419898 -0.620864 -2.101298 24 36 49
-1.496827 -0.606480 -2.034597 92 93 97
-1.499914 -0.626692 -1.903157 247 239 228
-1.495949 -0.629456 -1.869559 245 239 227
-1.499309 -0.633488 -1.748668 243 237 225
-1.499904 -0.650324 -1.680403 247 240 230
-1.499467 -0.652439 -1.569661 253 246 238
-1.499691 -0.635647 -1.484500 249 250 242
-1.466042 -0.681539 -1.340209 30 33 42
-1.485436 -0.614174 -1.206023 15 27 41
-1.493799 -0.614740 -1.185821 125 90 96
-1.499907 -0.631103 -0.316057 0 1 6
-1.450877 -0.621705 -0.269902 2 4 9
-1.493449 -0.666367 0.099814 69 69 74
-1.473528 -0.658356 0.197868 243 237 223
-1.497751 -0.664082 0.299954 236 230 216
-1.495296 -0.687229 0.397676 229 220 211
-1.485327 -0.605848 0.435617 158 171 190
-1.485824 -0.679329 0.599900 232 224 213
-1.484649 -0.687106 0.694878 236 228 217
-1.486029 -0.681851 0.794657 250 242 231
-1.479300 -0.680161 0.895162 250 246 235
-1.497057 -0.689434 0.976186 250 246 234
-1.493630 -0.662651 1.095745 240 240 240
-1.499309 -0.677314 1.173988 241 240 241
-1.400329 -0.670888 1.245639 84 82 82
-1.405090 -0.689867 1.627349 53 71 91
-1.418866 -0.604028 4.695440 140 116 80
-1.408742 -0.611115 4.733482 130 112 87
-1.426584 -0.613461 4.871661 145 126 104
-1.412485 -0.620459 4.914106 147 140 134
-1.404820 -0.616185 5.057817 115 110 106
-1.400841 -0.615096 5.144470 143 137 130
-1.403310 -0.616736 5.209570 170 166 163
-1.413854 -0.595984 -2.605796 147 146 141
-1.408375 -0.557698 -2.512088 147 146 141
-1.437045 -0.557977 -2.100695 130 130 130
-1.484475 -0.505024 -2.001761 133 133 132
-1.493953 -0.507483 -1.998778 134 133 132
-1.404284 -0.598157 -1.203934 13 23 35
-1.409296 -0.598409 -1.191180 18 13 20
-1.495200 -0.500094 0.362385 149 161 185
-1.491620 -0.503679 0.411570 160 171 189
-1.427454 -0.507792 4.648983 144 117 74
-1.414903 -0.501239 4.750561 132 116 89
-1.429521 -0.514680 4.879326 147 129 103
-1.413313 -0.519617 4.913488 147 140 135
-1.419420 -0.536824 5.016830 144 140 131
-1.401592 -0.502519 5.145760 150 144 136
-1.400491 -0.533654 5.210593 197 195 190
-1.472867 -0.436306 -4.114037 57 50 43
-1.405044 -0.427163 -3.943377 32 27 20
-1.489105 -0.407897 -3.132584 131 155 181
-1.496438 -0.410188 -3.012150 117 117 117
-1.497274 -0.413198 -2.978581 163 165 164
-1.488462 -0.406747 -2.871725 177 173 172
-1.490978 -0.407877 -2.755835 125 115 109
-1.487431 -0.408947 -2.688947 130 121 120
-1.457606 -0.402300 -2.571319 160 160 155
-1.474126 -0.410298 -2.002377 143 144 140
-1.493617 -0.404447 -1.997085 145 145 143
-1.466630 -0.401065 0.335625 131 147 166
-1.492536 -0.400720 0.484357 131 147 170
-1.432556 -0.421459 4.662755 145 117 77
-1.400852 -0.414114 4.771199 136 126 118
-1.409297 -0.416414 4.893329 148 143 137
-1.491983 -0.410755 4.903131 130 104 69
-1.460429 -0.405944 5.037084 159 130 88
-1.405041 -0.418962 5.158471 146 139 132
-1.473834 -0.327490 -3.723138 139 150 175
-1.491077 -0.322498 -3.650626 132 153 193
-1.403075 -0.320209 -3.507143 131 154 198
-1.464770 -0.315821 -3.408939 134 158 204
-1.494826 -0.314960 -3.375652 135 160 200
-1.490515 -0.332234 -3.237476 151 166 184
-1.477953 -0.391692 -3.144500 139 154 175
-1.498293 -0.328431 -3.058263 144 158 168
-1.411335 -0.393803 -2.977062 187 195 204
-1.447761 -0.399067 -2.857890 171 171 170
-1.455305 -0.350921 -2.796161 116 102 101
-1.472979 -0.379104 -2.672143 126 115 113
-1.497092 -0.361305 -2.504669 172 200 222
-1.489612 -0.311284 -2.401506 94 92 93
-1.459309 -0.303948 -2.376771 97 93 94
-1.485454 -0.320919 -2.200535 151 153 150
-1.447495 -0.301419 -2.105770 148 147 147
-1.499744 -0.300840 -2.098321 146 148 147
-1.496193 -0.322881 -1.999413 148 148 146
-1.489940 -0.301234 0.341280 132 146 172
-1.498338 -0.336410 0.472692 135 151 174
-1.437070 -0.311910 4.673308 146 118 78
-1.428096 -0.301326 4.788879 138 121 86
-1.403578 -0.308609 4.855462 127 123 114
-1.411957 -0.341634 4.901086 150 144 136
-1.463974 -0.323589 5.048889 160 131 89
-1.409704 -0.306535 5.175662 149 145 136
-1.412372 -0.292617 -3.435281 124 159 200
-1.413125 -0.243295 -3.323614 198 193 182
-1.400106 -0.242881 -3.201765 144 160 194
-1.405574 -0.247111 -3.120449 136 166 204
-1.401648 -0.258471 -3.077101 140 165 198
-1.491661 -0.292044 -2.601259 103 105 100
-1.487499 -0.288798 -2.573896 92 94 89
-1.476740 -0.286386 -2.424099 82 82 84
-1.448385 -0.290339 -2.380770 90 86 87
-1.438025 -0.295545 -2.204823 101 101 103
-1.465704 -0.279600 -2.111580 75 87 99
-1.499517 -0.298106 -2.065964 146 146 144
-1.487567 -0.281506 0.333934 134 149 172
-1.438379 -0.267723 4.675756 147 118 78
-1.425835 -0.209023 4.776049 138 121 86
-1.407183 -0.216258 4.864516 129 125 116
-1.412785 -0.240545 4.900457 150 146 137
-1.467285 -0.212456 5.059223 160 131 89
-1.411163 -0.220905 5.180251 149 142 134
-1.427102 -0.163524 4.778430 138 121 87
-1.415086 -0.147709 4.891016 133 126 118
-1.405442 -0.150696 4.937202 92 84 81
-1.469459 -0.156657 5.066355 160 131 89
-1.405257 -0.104810 5.154428 153 150 141
-1.412901 -0.171877 5.205453 183 180 175
-1.486828 -0.034072 4.798961 161 132 89
-1.413372 -0.012315 4.893890 69 58 43
-1.478393 -0.033573 4.937735 126 104 80
-1.410302 -0.067196 5.005372 138 115 85
-1.458882 0.004761 4.791331 186 156 121
-1.416565 0.011053 4.867512 134 123 95
-1.431321 0.028945 4.952167 47 48 44
-1.479784 0.002099 5.006095 19 20 15
-1.463248 0.058926 5.595543 69 75 73
-1.405714 0.089550 5.626197 55 61 59
-1.443299 0.089565 5.980341 44 50 50
-1.408423 0.183543 5.642993 48 54 52
-1.404345 0.170963 5.750299 54 60 58
-1.474899 0.122049 5.979423 39 45 45
-1.437925 1.296565 4.992622 141 142 134
-1.411411 1.297313 5.002323 142 143 135
-1.415811 1.389938 4.848863 59 60 59
-1.421663 1.316819 4.909839 127 127 119
-1.403730 1.394701 5.014613 142 144 143
-1.486811 1.498182 4.686580 91 90 88
-1.410760 1.489256 4.713682 95 95 95
-1.405753 1.454756 4.805951 54 54 54
-1.410016 1.480611 4.934237 90 91 93
-1.417307 1.453072 5.025692 118 118 120
-1.493089 1.599441 -6.251730 163 149 123
-1.499999 1.545013 -6.125491 135 136 130
-1.476642 1.549938 -6.016579 142 143 138
-1.487067 1.555539 -5.926438 147 147 145
-1.497342 1.561116 -5.839540 146 146 144
-1.490113 1.569097 -5.755475 143 145 142
-1.483069 1.581028 -5.656983 139 140 135
-1.444900 1.590211 -5.504234 139 138 134
-1.490871 1.599079 -5.401553 138 139 134
-1.448203 1.598564 -5.329956 137 137 135
-1.427292 1.558359 -5.202791 118 119 114
-1.491679 1.567792 -5.114857 116 117 112
-1.452306 1.583725 -5.009628 114 115 110
-1.493433 1.591361 -4.928952 113 114 109
-1.421945 1.587247 -4.872367 158 144 117
-1.486936 1.599442 -4.739726 143 135 116
-1.469853 1.585293 -4.608134 142 134 115
-1.446133 1.582686 -4.508963 141 133 114
-1.436578 1.575131 -4.404995 141 132 115
-1.418672 1.575921 -4.363550 141 132 115
-1.436321 1.599416 -3.425369 134 132 133
-1.483351 1.599534 -3.323828 135 135 135
-1.498307 1.596342 -2.407910 145 147 147
-1.420664 1.594514 -2.303734 149 150 152
-1.406765 1.593075 -2.205895 152 153 155
-1.402177 1.596837 -2.108594 157 158 160
-1.411140 1.599958 -2.059821 159 160 162
-1.451862 1.596137 -1.902096 143 144 148
-1.416670 1.599845 -1.807247 146 147 152
-1.492170 1.599056 -1.711243 178 185 193
-1.463211 1.592757 2.277635 107 108 110
-1.420848 1.592385 2.302837 108 108 110
-1.401184 1.593723 2.402156 105 106 108
-1.407261 1.592676 2.503446 103 104 106
-1.402739 1.596554 2.622914 101 103 102
-1.410021 1.577294 2.715402 92 90 91
-1.489203 1.529327 2.896381 100 100 100
-1.419687 1.536466 2.932052 98 100 99
-1.411552 1.552178 3.017047 97 99 98
-1.415492 1.564992 3.101064 96 98 98
-1.400247 1.579069 3.222748 95 96 97
-1.415219 1.586290 3.305836 94 95 97
-1.413949 1.599215 3.440656 92 93 95
-1.409389 1.590038 3.517263 122 123 125
-1.411227 1.593324 3.650239 121 122 124
-1.412618 1.595605 3.721173 131 131 131
-1.413510 1.597731 3.863252 119 121 120
-1.414764 1.599878 3.940286 114 118 121
-1.413439 1.598652 4.010850 113 117 120
-1.412853 1.598961 4.166029 110 114 117
-1.475892 1.598783 4.643668 87 87 87
-1.409614 1.510847 4.708354 91 91 91
-1.415085 1.595110 4.848885 99 100 102
-1.401497 1.526044 4.901828 89 90 92
-1.417915 1.556809 5.029017 98 100 99
-1.406441 1.529579 5.121220 102 102 104
-1.412303 1.611436 -6.231444 170 152 128
-1.494241 1.614877 -6.158293 167 153 126
-1.492251 1.614745 -6.070568 167 153 126
-1.488232 1.614248 -5.903227 166 152 125
-1.489883 1.608617 -5.864089 140 140 140
-1.469451 1.612429 -5.734270 146 145 140
-1.477707 1.617990 -5.654350 146 145 140
-1.485052 1.622716 -5.574495 145 144 139
-1.423135 1.604422 -5.402880 139 140 134
-1.493382 1.604837 -5.320918 137 138 133
-1.486284 1.625518 -5.244443 141 137 126
-1.477955 1.635376 -5.134850 144 138 126
-1.479235 1.635235 -5.055419 144 138 126
-1.488122 1.641643 -4.925603 143 137 125
-1.488284 1.640478 -4.850005 142 136 124
-1.491346 1.641102 -4.714767 138 132 120
-1.494767 1.643420 -4.656268 137 131 119
-1.498936 1.645397 -4.536615 134 127 117
-1.479683 1.646446 -4.415123 135 128 118
-1.483454 1.647640 -4.306609 136 129 119
-1.492297 1.654253 -4.218680 136 129 119
-1.497555 1.657258 -4.125840 136 129 119
-1.480928 1.658697 -4.028404 136 129 119
-1.442048 1.658448 -3.971247 136 129 119
-1.450360 1.645194 -3.836265 117 113 102
-1.428267 1.641091 -3.778152 122 118 107
-1.433437 1.609927 -3.606860 132 130 131
-1.423762 1.605248 -3.505139 133 132 132
-1.457597 1.600757 -3.404405 134 134 134
-1.493938 1.600217 -3.313413 135 135 135
-1.406219 1.641312 -3.201393 136 136 134
-1.437118 1.639423 -3.146486 137 137 135
-1.453340 1.619316 -3.000705 145 145 143
-1.454295 1.616047 -2.901758 148 148 146
-1.486098 1.613829 -2.803661 150 150 148
-1.461077 1.614413 -2.701980 153 153 151
-1.491106 1.614636 -2.669781 154 154 152
-1.495487 1.609249 -2.556637 165 161 158
-1.408339 1.614970 -2.407419 150 150 150
-1.409277 1.615903 -2.303591 153 153 155
-1.429095 1.615167 -2.209639 158 156 159
-1.446580 1.600297 -2.101882 157 158 160
-1.402699 1.601160 -2.005840 162 163 167
-1.403194 1.605333 -1.906339 164 167 172
-1.408690 1.610304 -1.801497 170 174 181
-1.471419 1.602136 -1.704105 180 184 195
-1.487584 1.609578 -1.609518 185 191 203
-1.498723 1.610652 -1.564209 189 195 209
-1.480798 1.623728 -1.474557 249 253 252
-1.403234 1.644641 -1.307067 252 252 252
-1.407640 1.640985 -1.204674 252 252 252
-1.410038 1.634865 -1.100655 252 252 252
-1.404872 1.612148 -1.001586 250 250 250
-1.400638 1.626194 -0.901776 250 250 250
-1.400681 1.629970 -0.814182 195 199 207
-1.400763 1.619736 -0.767203 201 209 220
-1.402157 1.624305 -0.684297 192 201 210
-1.474621 1.641168 -0.500467 174 179 183
-1.400991 1.644156 -0.492817 174 179 183
-1.404035 1.635600 -0.391805 168 172 173
-1.400045 1.624870 -0.242924 157 158 160
-1.404212 1.628198 -0.193438 155 158 157
-1.400414 1.632021 -0.090206 156 152 151
-1.405762 1.627894 0.061258 139 140 135
-1.404055 1.627687 0.107073 138 139 134
-1.401647 1.628605 0.205447 137 137 135
-1.407250 1.630960 0.308815 137 136 133
-1.405564 1.647543 0.414988 122 121 117
-1.407526 1.652312 0.500116 124 125 120
-1.404611 1.650059 0.602162 124 123 119
-1.400711 1.646840 0.714179 126 125 121
-1.495249 1.624425 0.894927 148 147 145
-1.485612 1.620155 0.999255 131 131 129
-1.402141 1.625906 1.065994 131 130 128
-1.425815 1.619236 1.197712 117 117 117
-1.407913 1.618743 1.204984 117 117 117
-1.402611 1.627647 1.384174 111 110 108
-1.407708 1.623581 1.404505 111 110 108
-1.405134 1.623846 1.501176 111 111 111
-1.402859 1.624829 1.609129 111 111 109
-1.402993 1.633825 1.766113 107 107 107
-1.400967 1.634059 1.812921 107 107 107
-1.408507 1.635322 1.913723 107 107 107
-1.401454 1.631791 2.000143 104 106 105
-1.409253 1.632511 2.119866 106 106 108
-1.404632 1.631011 2.204674 105 105 105
-1.410736 1.627940 2.317153 104 104 106
-1.407171 1.627685 2.419324 103 103 103
-1.404901 1.628144 2.502540 103 103 103
-1.401743 1.628914 2.622132 99 98 95
-1.401419 1.632035 2.723348 97 98 100
-1.414906 1.633019 2.826379 95 96 98
-1.412192 1.631506 2.979911 91 92 94
-1.482343 1.611606 3.097167 137 141 143
-1.408131 1.603540 3.193440 129 130 132
-1.408060 1.600708 3.262670 110 110 110
-1.405926 1.603810 3.307915 109 109 109
-1.450041 1.600353 3.445286 91 93 92
-1.414135 1.609926 3.540553 59 61 60
-1.413118 1.619739 3.643415 84 86 85
-1.412693 1.614701 3.703174 79 81 80
-1.449118 1.624293 3.807641 79 80 82
-1.449372 1.631467 3.903915 77 79 76
-1.430771 1.638613 4.000997 78 80 79
-1.413395 1.649232 4.111557 74 75 77
-1.415190 1.661336 4.235694 74 75 77
-1.435157 1.666325 4.301672 73 72 77
-1.410535 1.671276 4.412874 69 73 74
-1.403338 1.673423 4.527173 73 73 75
-1.405237 1.659585 4.608325 89 90 92
-1.403859 1.635561 4.720541 45 46 48
-1.404602 1.636244 4.808756 95 96 98
-1.414267 1.662274 4.960081 84 85 89
-1.407498 1.656490 5.031827 86 87 89
-1.453872 1.700753 3.601562 84 88 91
-1.414767 1.703143 3.720763 83 87 90
-1.412011 1.704604 3.842584 81 86 89
-1.410857 1.705652 3.906886 80 84 89
-1.406338 1.705699 4.035227 44 49 53
-1.424951 1.705690 4.100858 60 61 66
-1.418757 1.703830 4.234849 73 78 82
-1.415555 1.702887 4.304796 73 78 82
-1.430756 1.700294 4.447272 72 74 79
-1.480049 1.704839 4.885083 66 67 71
-1.463170 1.705037 4.907484 96 97 101
-1.343415 -1.404588 -3.206181 126 122 111
-1.375795 -1.401655 -3.161269 141 140 122
-1.350081 -1.420933 -3.095934 126 126 114
-1.399494 -1.403197 -2.634751 85 82 76
-1.380389 -1.401151 -2.506430 40 48 50
-1.370777 -1.404304 -2.488233 38 44 46
-1.399554 -1.401437 -2.028107 173 155 135
-1.398883 -1.401656 -1.989984 83 77 66
-1.398379 -1.403938 -1.879531 18 22 25
-1.399124 -1.404144 -1.725576 178 172 160
-1.396873 -1.402546 -1.688713 63 62 58
-1.395935 -1.404197 -1.585807 66 71 77
-1.399665 -1.403071 -1.431561 200 192 171
-1.390472 -1.400236 -1.391929 49 52 58
-1.398966 -1.407151 -1.274949 69 76 84
-1.393843 -1.402336 -1.103975 86 95 97
-1.396363 -1.400030 -1.001082 104 109 115
-1.392486 -1.400511 -0.901262 97 104 112
-1.398462 -1.414005 -0.806171 72 80 82
-1.395797 -1.405543 -0.703265 87 92 96
-1.392087 -1.403552 -0.602738 81 86 90
-1.391436 -1.402088 -0.503393 89 94 99
-1.399288 -1.400130 -0.410244 72 79 87
-1.374920 -1.400204 -0.385476 90 95 99
-1.364570 -1.400182 -0.205655 70 77 85
-1.365953 -1.420408 -0.102639 65 74 83
-1.394673 -1.412145 -0.001294 72 82 91
-1.388016 -1.407680 0.098091 75 85 94
-1.394043 -1.403779 0.197564 77 86 93
-1.367718 -1.408218 0.297312 69 79 89
-1.385147 -1.406009 0.399815 81 90 99
-1.384896 -1.402949 0.498502 57 64 72
-1.383164 -1.400455 0.594858 55 64 73
-1.303476 -1.400102 0.623018 66 75 84
-1.390744 -1.412162 0.798726 61 70 77
-1.302866 -1.408341 0.891765 78 82 93
-1.301974 -1.411514 0.997987 63 70 80
-1.357795 -1.415328 1.099954 50 54 65
-1.319588 -1.401301 1.163166 54 62 73
-1.391886 -1.404005 1.298948 96 99 103
-1.352230 -1.400047 1.390552 73 82 91
-1.362290 -1.406807 1.499358 80 90 99
-1.394815 -1.403574 1.597811 80 90 97
-1.307030 -1.409249 1.690931 156 152 149
-1.321848 -1.407562 1.796606 87 98 110
-1.392207 -1.408878 1.897922 99 109 119
-1.398973 -1.409533 1.996236 101 111 121
-1.307401 -1.408581 2.097409 105 117 129
-1.339438 -1.408920 2.198023 101 113 125
-1.314523 -1.409709 2.288000 104 121 131
-1.363580 -1.409956 2.395588 95 110 123
-1.321034 -1.409412 2.499755 102 119 129
-1.307983 -1.409157 2.598081 104 121 131
-1.310417 -1.408874 2.695261 101 116 129
-1.312451 -1.408027 2.796415 101 115 128
-1.333161 -1.408662 2.899751 98 114 127
-1.301464 -1.400749 2.976892 84 100 113
-1.301944 -1.401049 3.082014 87 103 116
-1.303135 -1.402031 3.194952 86 102 115
-1.375703 -1.401991 3.297466 82 98 111
-1.303036 -1.401648 3.371804 82 98 113
-1.322311 -1.401715 3.495709 70 86 99
-1.370903 -1.437088 3.598968 40 56 71
-1.381883 -1.415708 3.697978 35 51 66
-1.319248 -1.400657 3.781664 40 53 69
-1.305858 -1.403616 3.862060 71 85 98
-1.304981 -1.402636 3.937463 69 83 96
-1.315580 -1.427051 4.080217 31 45 58
-1.350194 -1.405362 4.198255 29 43 56
-1.305589 -1.407434 4.204620 28 37 52
-1.307485 -1.404370 4.379883 63 73 85
-1.307337 -1.404070 4.475972 61 69 82
-1.308548 -1.405085 4.580703 63 73 83
-1.306620 -1.403041 4.677742 68 78 88
-1.304895 -1.401189 4.779356 70 80 90
-1.372460 -1.404006 4.888250 85 95 105
-1.324619 -1.403637 4.926600 87 98 104
-1.316935 -1.356902 -3.650975 99 102 95
-1.354102 -1.369332 -3.599014 69 70 65
-1.343418 -1.342714 -3.458990 69 71 70
-1.339644 -1.377647 -3.381500 85 67 47
-1.379696 -1.362802 -3.227778 136 130 116
-1.315912 -1.323174 -3.183588 77 72 65
-1.390713 -1.392244 -3.081902 51 57 58
-1.379495 -1.392155 -2.992699 59 64 67
-1.326999 -1.370537 -2.896325 68 74 74
-1.363288 -1.312643 -2.600125 20 30 42
-1.365199 -1.302744 -2.585199 18 28 40
-1.301771 -1.302583 -2.411214 8 20 32
-1.386964 -1.300944 -2.319523 157 150 140
-1.391713 -1.318071 -2.286608 82 81 77
-1.389333 -1.317209 -2.182035 136 134 126
-1.398063 -1.346051 -2.031203 143 140 135
-1.395466 -1.345263 -1.997985 94 94 93
-1.394709 -1.358539 -1.895193 4 13 22
-1.399415 -1.322275 -1.752500 19 23 34
-1.399270 -1.324943 -1.620599 29 39 51
-1.392843 -1.312042 -1.592250 36 46 58
-1.399206 -1.374426 -1.445273 174 174 172
-1.398088 -1.370898 -1.392113 28 37 52
-1.399670 -1.365569 -1.280420 38 47 62
-1.398724 -1.363065 -1.190286 51 60 77
-1.399422 -1.357012 -1.083797 61 74 91
-1.399199 -1.355480 -0.998630 65 81 97
-1.349504 -1.399875 -0.801127 114 119 123
-1.379331 -1.399953 -0.737927 79 84 88
-1.380587 -1.399955 -0.600026 86 91 95
-1.360803 -1.399947 -0.529331 85 90 96
-1.394502 -1.399460 -0.404850 79 86 94
-1.397861 -1.359377 -0.301958 70 77 85
-1.396214 -1.398647 -0.201613 47 54 62
-1.399726 -1.398952 -0.105013 76 85 92
-1.393679 -1.399952 -0.004680 76 85 92
-1.395776 -1.399845 0.069900 67 77 86
-1.303384 -1.399873 0.154886 83 92 100
-1.399823 -1.393182 0.287064 87 96 103
-1.387983 -1.315446 0.328084 38 47 56
-1.383110 -1.379638 0.497097 35 46 58
-1.389729 -1.350138 0.599123 24 33 48
-1.384492 -1.360274 0.696110 25 34 49
-1.382920 -1.379805 0.797662 36 44 57
-1.399704 -1.372448 0.895678 36 44 57
-1.372383 -1.366953 0.997451 28 37 52
-1.399034 -1.374891 1.098436 25 35 45
-1.379109 -1.308976 1.196330 36 44 55
-1.369692 -1.374824 1.297565 45 55 64
-1.341253 -1.367921 1.398006 44 56 68
-1.395065 -1.366540 1.496154 39 51 63
-1.390190 -1.321128 1.596926 52 61 76
-1.309343 -1.370077 1.685672 35 49 62
-1.305313 -1.370066 1.798679 53 63 78
-1.312012 -1.367942 1.898937 54 66 83
-1.308837 -1.367462 1.988229 57 71 84
-1.304993 -1.366493 2.083870 54 67 83
-1.313795 -1.364480 2.185164 57 70 86
-1.308990 -1.362395 2.295620 53 69 84
-1.306262 -1.361944 2.386984 52 68 83
-1.302870 -1.360950 2.483675 59 75 90
-1.301138 -1.361932 2.591256 56 72 87
-1.395778 -1.368082 2.692105 56 69 85
-1.357349 -1.363143 2.797583 54 67 83
-1.390905 -1.359725 2.892031 56 71 90
-1.378263 -1.358476 2.994091 57 72 91
-1.377544 -1.356953 3.089119 55 71 87
-1.328450 -1.300675 3.192238 47 62 81
-1.314245 -1.300701 3.201908 47 63 80
-1.303121 -1.306425 3.386025 32 44 56
-1.304685 -1.303542 3.489400 34 46 58
-1.313432 -1.303826 3.568360 31 43 55
-1.356156 -1.300436 3.645652 33 44 56
-1.302458 -1.301092 3.796958 23 36 45
-1.313382 -1.301581 3.881642 23 33 43
-1.305894 -1.300867 3.963076 18 28 38
-1.318283 -1.302370 4.059438 19 29 39
-1.311765 -1.303224 4.154514 22 30 41
-1.304436 -1.303570 4.253488 22 32 42
-1.315846 -1.302719 4.359791 24 34 44
-1.310909 -1.306505 4.481034 25 35 45
-1.310782 -1.311634 4.554146 23 33 43
-1.309597 -1.315611 4.625937 26 36 45
-1.306294 -1.322985 4.774414 28 37 44
-1.307887 -1.307913 4.865510 126 108 89
-1.369699 -1.312495 4.989169 145 138 127
-1.333223 -1.303780 5.078127 40 37 32
-1.309908 -1.307144 5.100635 62 62 56
-1.303984 -1.321343 5.253197 158 140 118
-1.398520 -1.268193 -2.705881 126 113 94
-1.368075 -1.292817 -2.610913 18 28 38
-1.372638 -1.285425 -2.599371 17 27 37
-1.303625 -1.240542 -2.439841 16 25 40
-1.381485 -1.244073 -2.328453 152 143 136
-1.354907 -1.202398 -2.290297 148 139 132
-1.342217 -1.279156 -2.145551 116 114 106
-1.302939 -1.203078 -2.056353 20 28 39
-1.360079 -1.268394 -1.995858 147 141 135
-1.338668 -1.208499 -1.885090 140 130 120
-1.367520 -1.201560 -1.747133 6 15 24
-1.338866 -1.207208 -1.680374 13 17 28
-1.372874 -1.277645 -1.572179 31 42 54
-1.303961 -1.280983 -1.479803 38 47 62
-1.318674 -1.281744 -1.383637 33 44 56
-1.396478 -1.269912 -0.300822 86 93 91
-1.386231 -1.225605 0.379672 127 131 134
-1.386906 -1.200926 0.421330 185 180 165
-1.392044 -1.200723 0.519592 219 206 189
-1.383011 -1.210073 0.602607 231 218 201
-1.301984 -1.228625 1.066010 42 52 64
-1.374675 -1.243148 1.159054 30 40 50
-1.361088 -1.286094 1.200890 48 57 68
-1.391993 -1.222332 1.382782 27 27 35
-1.314493 -1.239808 1.462534 54 70 86
-1.367273 -1.270687 1.589368 57 66 83
-1.398677 -1.293353 1.657878 94 105 111
-1.398226 -1.299235 3.094835 53 68 87
-1.390336 -1.297003 3.183866 40 52 64
-1.306331 -1.292763 3.294006 38 52 65
-1.313635 -1.291559 3.370670 38 50 64
-1.316073 -1.289679 3.493891 35 49 62
-1.305326 -1.288599 3.583081 37 51 64
-1.313489 -1.298031 3.678515 33 43 55
-1.303015 -1.296637 3.761995 33 45 57
-1.305634 -1.294133 3.896585 30 42 54
-1.316109 -1.294864 3.999786 28 38 50
-1.311893 -1.295963 4.054734 28 38 50
-1.303000 -1.298184 4.169618 26 36 48
-1.313742 -1.298448 4.287874 31 41 51
-1.308817 -1.299258 4.350788 33 43 53
-1.362113 -1.292834 4.498414 40 53 69
-1.306840 -1.292838 4.589941 40 54 67
-1.301804 -1.295260 4.683147 55 58 68
-1.396391 -1.232535 4.795186 110 104 96
-1.314424 -1.222532 4.887869 36 29 21
-1.322380 -1.216410 4.978337 77 63 53
-1.312226 -1.222103 5.020340 69 56 47
-1.328079 -1.219023 5.195175 81 67 58
-1.306734 -1.225168 5.230093 79 65 56
-1.311513 -1.201880 5.300268 83 66 58
-1.311150 -1.178579 -2.494030 66 76 77
-1.310167 -1.181129 -2.370237 18 28 38
-1.301288 -1.180425 -2.220750 130 135 133
-1.341694 -1.100437 -2.130130 38 52 65
-1.341076 -1.110928 -2.085835 36 48 60
-1.331054 -1.105184 -1.987072 23 33 43
-1.346174 -1.182671 -1.898396 134 124 114
-1.392833 -1.103992 -1.720108 18 26 37
-1.388578 -1.106588 -1.695664 17 25 36
-1.385557 -1.158246 -1.544923 75 79 82
-1.325798 -1.153027 -1.499159 35 45 57
-1.318723 -1.152283 -1.390013 34 42 41
-1.395974 -1.115342 0.398072 169 167 165
-1.391340 -1.175119 0.499544 218 205 188
-1.399070 -1.137903 0.598126 204 195 178
-1.382452 -1.104023 0.609248 187 176 158
-1.305993 -1.139476 1.076246 31 41 51
-1.341319 -1.144183 1.190642 180 181 183
-1.346134 -1.157485 1.208212 141 147 148
-1.305479 -1.148776 1.470148 90 90 92
-1.399213 -1.108606 1.559276 98 98 96
-1.393452 -1.164501 4.462895 141 114 84
-1.370045 -1.117873 4.775674 173 144 100
-1.316731 -1.107929 4.891530 55 42 33
-1.398874 -1.139234 4.980414 89 80 75
-1.320680 -1.116233 5.079953 63 49 40
-1.351720 -1.104623 5.183034 88 75 69
-1.308309 -1.115194 5.249814 84 71 63
-1.312717 -1.123895 5.321783 83 68 63
-1.317241 -1.082028 -2.112911 38 52 65
-1.312967 -1.098631 -2.095671 36 48 60
-1.345500 -1.022879 -1.953154 34 47 55
-1.309155 -1.099006 -1.811525 153 133 108
-1.378407 -1.079281 -1.703223 16 24 35
-1.331331 -1.027047 -1.663073 18 26 37
-1.313472 -1.039483 -1.590353 14 22 33
-1.300761 -1.000436 -1.400574 170 171 175
-1.378766 -1.073338 -1.381233 22 32 44
-1.386131 -1.013104 -1.278353 56 57 62
-1.376588 -1.002948 0.377931 176 167 160
-1.395294 -1.000077 0.420663 194 186 167
-1.395148 -1.002376 0.589519 168 156 140
-1.399896 -1.008057 0.631131 173 161 147
-1.347336 -1.001071 0.956662 38 39 43
-1.331741 -1.087449 1.096392 95 99 102
-1.351164 -1.097471 1.103940 25 33 41
-1.359240 -1.028935 1.492502 144 66 72
-1.398789 -1.006715 4.792907 120 112 104
-1.314738 -1.012081 4.878605 58 45 37
-1.346634 -1.001208 4.977269 78 65 57
-1.394997 -1.007273 5.064328 65 52 44
-1.307502 -1.000963 5.119035 64 53 48
-1.307919 -1.002284 5.260397 51 40 34
-1.308953 -1.040088 5.318580 71 56 51
-1.322807 -0.980629 -2.023234 107 94 78
-1.355140 -0.973795 -1.914671 161 152 144
-1.393573 -0.902721 -1.879851 107 100 92
-1.396401 -0.902935 -1.722095 29 41 55
-1.322911 -0.900942 -1.604585 13 16 23
-1.315009 -0.902506 -1.588529 14 19 25
-1.390617 -0.904407 -1.400381 84 85 89
-1.396307 -0.906935 -1.395043 84 85 89
-1.399239 -0.925173 -1.277614 97 97 99
-1.397032 -0.910787 0.393315 155 152 149
-1.399847 -0.905180 0.430643 196 188 175
-1.399000 -0.915184 0.599869 153 143 131
-1.395443 -0.901977 0.658517 156 147 136
-1.385139 -0.900851 0.880968 43 47 48
-1.387340 -0.900775 0.929847 42 43 46
-1.306620 -0.923799 1.000052 166 168 167
-1.320134 -0.913571 1.141770 124 113 104
-1.310021 -0.933587 1.206572 150 140 127
-1.313371 -0.975889 1.387224 191 132 131
-1.318522 -0.985500 1.408962 134 113 107
-1.378977 -0.917658 4.792625 101 96 92
-1.312745 -0.916591 4.865696 42 31 25
-1.324415 -0.925444 4.999553 62 49 43
-1.302379 -0.903421 5.024689 48 37 30
-1.310671 -0.920663 5.132041 23 15 13
-1.326793 -0.910296 5.222004 29 25 20
-1.395696 -0.805452 -2.875959 253 253 238
-1.381781 -0.875922 -1.860231 246 233 185
-1.352749 -0.806050 -1.712141 209 195 169
-1.342775 -0.839700 -1.620932 128 73 81
-1.302238 -0.811458 -1.590255 100 62 72
-1.307361 -0.818538 -1.473541 7 6 14
-1.301394 -0.806367 -1.383388 129 80 84
-1.391376 -0.810598 -1.246786 143 54 61
-1.399405 -0.890774 0.388333 152 149 141
-1.385817 -0.801788 0.598492 136 129 121
-1.394136 -0.810803 0.660340 133 126 118
-1.369363 -0.895504 0.898840 51 52 54
-1.352195 -0.800701 0.980309 114 69 75
-1.374938 -0.830593 1.051542 219 144 146
-1.309605 -0.823924 1.111496 48 49 51
-1.396425 -0.877588 1.256573 60 71 78
-1.359112 -0.805341 4.791299 75 65 56
-1.307816 -0.819018 4.840725 40 37 30
-1.352871 -0.811629 4.985844 70 57 49
-1.308550 -0.818073 5.013977 61 52 45
-1.318645 -0.815499 5.165777 77 64 55
-1.304998 -0.801359 5.268509 91 77 68
-1.302315 -0.819399 5.327187 97 83 74
-1.334020 -0.706589 -2.922620 158 150 127
-1.312435 -0.725734 -2.899535 158 147 125
-1.391030 -0.780254 -2.712535 253 255 244
-1.380492 -0.764924 -2.508381 7 15 19
-1.366267 -0.760499 -2.442400 163 165 163
-1.395912 -0.730661 -2.357214 127 143 176
-1.393622 -0.742140 -2.278560 200 205 210
-1.398730 -0.700930 -1.918768 248 248 248
-1.397175 -0.701529 -1.878352 248 248 248
-1.385160 -0.700290 -1.799420 248 248 248
-1.391178 -0.754960 -1.602770 203 187 153
-1.348041 -0.717189 -1.506885 180 164 149
-1.398259 -0.701115 -1.428436 14 21 31
-1.355130 -0.709758 -1.399789 31 36 45
-1.352376 -0.704906 -1.201111 99 33 43
-1.397965 -0.704930 -1.176143 93 30 39
-1.399712 -0.704696 0.294196 255 246 205
-1.392327 -0.701379 0.396238 210 196 179
-1.370350 -0.702188 0.495164 217 200 185
-1.333296 -0.705731 0.588876 136 128 113
-1.395571 -0.728596 0.672777 212 195 168
-1.381378 -0.700095 0.794654 230 231 187
-1.396130 -0.704139 0.859716 235 230 185
-1.305877 -0.790742 0.982190 83 36 43
-1.301351 -0.788277 1.003304 216 125 119
-1.322064 -0.753730 1.168667 66 85 100
-1.352913 -0.740588 1.236926 54 51 44
-1.386103 -0.746984 1.468646 123 67 76
-1.389643 -0.715029 1.588305 66 58 66
-1.399164 -0.727377 1.623615 109 70 75
-1.361514 -0.715331 4.796073 67 58 53
-1.314125 -0.707319 4.860837 68 55 46
-1.382015 -0.711247 4.998388 80 66 57
-1.325109 -0.701242 5.084049 75 62 53
-1.322902 -0.705884 5.183231 82 71 65
-1.325500 -0.711056 5.237148 102 89 81
-1.322422 -0.708056 5.315961 108 91 84
-1.344741 -0.614476 -5.282999 59 28 34
-1.327106 -0.688107 -2.946069 165 150 121
-1.392749 -0.656383 -2.729195 146 145 141
-1.384962 -0.668759 -2.317280 130 147 175
-1.302367 -0.623863 -2.218214 132 149 177
-1.392403 -0.619259 -2.129532 9 14 25
-1.399672 -0.601213 -2.087287 23 35 47
-1.399373 -0.629393 -1.964928 243 235 224
-1.395307 -0.639828 -1.873042 244 236 225
-1.398997 -0.649435 -1.768290 245 237 226
-1.396684 -0.657299 -1.675078 248 242 230
-1.397489 -0.664225 -1.577970 253 247 235
-1.398439 -0.643784 -1.484743 250 251 245
-1.394365 -0.672202 -1.363425 1 8 22
-1.392155 -0.600858 -1.211901 12 20 33
-1.392886 -0.604373 -1.188562 51 4 10
-1.394549 -0.667730 0.299772 245 233 210
-1.391154 -0.669342 0.399071 233 230 221
-1.395326 -0.677155 0.497992 244 244 232
-1.399298 -0.684454 0.587670 249 241 230
-1.371982 -0.656855 0.699434 240 240 240
-1.381820 -0.654870 0.798657 240 240 240
-1.398301 -0.665620 0.891798 240 240 240
-1.399269 -0.681266 0.900558 238 240 239
-1.306454 -0.655215 1.198888 78 78 76
-1.307053 -0.650995 1.240190 195 128 132
-1.335929 -0.680223 1.387257 130 132 131
-1.315735 -0.661006 1.474174 52 71 86
-1.337813 -0.662093 1.511352 50 68 88
-1.361686 -0.600600 4.791023 66 57 52
-1.314265 -0.613875 4.856724 73 60 52
-1.396111 -0.600793 4.948115 113 106 100
-1.354951 -0.624634 5.098755 70 57 51
-1.331267 -0.600156 5.107906 77 64 56
-1.301481 -0.625904 5.216551 80 69 65
-1.300878 -0.627965 5.357148 73 58 51
-1.389345 -0.584672 -2.613476 149 148 143
-1.327842 -0.506020 -2.505110 153 150 143
-1.331363 -0.502935 -2.492338 152 151 146
-1.300894 -0.550703 -2.100522 107 112 115
-1.393818 -0.501312 -2.031054 132 132 130
-1.326445 -0.500207 -1.994218 193 176 148
-1.339682 -0.595533 -1.300185 48 51 58
-1.376655 -0.598675 -1.201505 120 83 87
-1.399617 -0.594092 -1.192904 15 22 34
-1.388891 -0.500614 0.368504 151 172 193
-1.392268 -0.517848 0.415080 213 216 223
-1.364089 -0.510007 4.795771 56 49 43
-1.300795 -0.502292 4.884626 36 25 18
-1.382648 -0.531145 4.994066 75 67 64
-1.327585 -0.571400 5.090233 69 56 50
-1.356762 -0.599421 5.105746 82 69 63
-1.300889 -0.539884 5.213167 37 26 22
-1.315954 -0.512808 5.320180 206 202 199
-1.327352 -0.404497 -3.700356 182 184 171
-1.303598 -0.495010 -2.510437 153 154 148
-1.308820 -0.447358 -2.404592 155 150 146
-1.300394 -0.437363 -2.362244 154 151 144
-1.393494 -0.402436 -2.029519 143 142 140
-1.342673 -0.400446 -1.989071 200 181 149
-1.398868 -0.402184 0.340548 132 156 186
-1.391755 -0.450534 0.413918 198 208 218
-1.384348 -0.416837 4.788071 120 115 111
-1.349081 -0.408637 4.899768 64 56 54
-1.306103 -0.421598 4.995229 48 42 40
-1.322007 -0.404594 5.061796 74 66 63
-1.307042 -0.408911 5.131895 93 85 82
-1.304942 -0.427197 5.230366 87 83 81
-1.315168 -0.402094 5.337188 115 104 99
-1.358034 -0.326574 -3.614880 183 188 193
-1.396642 -0.321549 -3.527447 130 153 195
-1.394644 -0.333119 -3.486273 129 153 197
-1.393477 -0.349704 -3.344340 131 155 199
-1.392834 -0.357563 -3.276637 138 158 191
-1.399759 -0.364324 -3.196685 149 155 167
-1.397287 -0.309634 -3.061188 156 166 177
-1.360916 -0.352382 -2.938898 150 162 178
-1.310132 -0.306314 -2.897447 162 168 170
-1.395175 -0.352502 -2.750421 122 111 106
-1.330707 -0.357902 -2.668173 172 171 169
-1.382333 -0.366451 -2.571669 170 169 167
-1.355168 -0.352907 -2.499431 169 168 164
-1.323955 -0.301495 -2.327482 129 115 114
-1.382164 -0.317789 -2.201578 142 141 136
-1.397843 -0.315142 -2.145804 148 148 146
-1.398021 -0.320906 -2.097786 148 147 143
-1.394035 -0.335803 -1.992714 223 224 216
-1.399037 -0.369404 0.366588 135 162 189
-1.382222 -0.310921 4.782063 200 169 115
-1.393011 -0.313044 4.897393 84 77 71
-1.371556 -0.322321 4.985307 83 70 64
-1.301235 -0.307833 5.065060 82 69 59
-1.303080 -0.308207 5.129437 80 69 65
-1.307412 -0.312743 5.240454 95 86 79
-1.311362 -0.317363 5.333950 124 114 112
-1.329642 -0.277428 -3.636880 227 221 207
-1.398542 -0.296348 -3.485694 125 158 201
-1.393693 -0.249305 -3.329987 135 159 198
-1.366766 -0.254650 -3.230534 132 161 203
-1.395938 -0.248015 -3.137763 135 164 204
-1.384724 -0.257261 -3.078884 138 166 203
-1.341246 -0.275424 -2.992027 155 165 177
-1.353548 -0.267798 -2.897690 156 169 195
-1.399055 -0.297598 -2.629424 110 104 103
-1.351402 -0.291784 -2.508527 103 97 97
-1.376120 -0.287062 -2.475064 95 91 90
-1.389979 -0.288297 -2.332007 99 93 93
-1.395471 -0.293826 -2.259718 103 99 99
-1.355690 -0.282803 -2.106692 124 124 124
-1.399827 -0.283914 -2.043208 151 150 147
-1.381312 -0.206227 4.786989 201 170 116
-1.358598 -0.217773 4.897928 98 91 85
-1.388821 -0.200187 4.960230 92 85 77
-1.300380 -0.209196 5.056380 44 32 26
-1.300277 -0.232085 5.128452 44 36 33
-1.309477 -0.226379 5.248970 103 94 89
-1.332479 -0.204541 5.326757 125 115 113
-1.381252 -0.127636 4.793399 201 170 116
-1.359045 -0.111507 4.898224 73 68 64
-1.396395 -0.153925 4.987644 85 76 71
-1.325482 -0.135507 5.062979 27 20 13
-1.300496 -0.130780 5.145149 32 23 18
-1.333603 -0.137618 5.224051 44 36 33
-1.372053 -0.040844 4.794799 190 165 121
-1.386075 -0.037597 4.885013 158 155 150
-1.326658 -0.040194 4.952001 165 163 158
-1.312621 -0.093969 5.004659 30 20 18
-1.312292 0.010095 4.897882 164 150 123
-1.337293 0.026965 4.975554 125 120 100
-1.346106 0.089067 5.647061 52 58 56
-1.346752 0.151694 5.653051 57 63 59
-1.312916 0.169287 5.762900 39 45 41
-1.312889 0.200659 5.766332 50 56 52
-1.322380 1.299305 4.957732 128 127 122
-1.302477 1.297434 5.029556 142 143 135
-1.319406 1.397662 4.776883 94 94 92
-1.321146 1.398166 4.872582 108 108 106
-1.312340 1.341854 4.910898 124 125 120
-1.310912 1.386864 5.044182 154 155 157
-1.351050 1.497819 4.727328 59 61 60
-1.307277 1.482861 4.808385 101 101 101
-1.304432 1.407743 4.909938 132 134 131
-1.305653 1.406562 5.019248 154 155 157
-1.381404 1.597968 -6.236352 164 152 128
-1.382907 1.599624 -6.146280 164 152 128
-1.371147 1.548026 -6.088655 150 151 146
-1.395644 1.559746 -5.908466 149 150 145
-1.355231 1.569540 -5.809107 146 148 145
-1.387945 1.577472 -5.703367 144 146 143
-1.373629 1.576507 -5.607875 141 140 136
-1.378223 1.583292 -5.525395 140 139 135
-1.380449 1.587151 -5.435774 139 138 134
-1.304825 1.591267 -5.310508 139 138 136
-1.349642 1.599459 -5.214158 136 135 133
-1.311201 1.598609 -5.148174 136 135 133
-1.331822 1.589785 -5.000729 116 117 112
-1.395057 1.599702 -4.919748 112 114 109
-1.382989 1.587704 -4.869780 159 145 118
-1.386509 1.597552 -4.627963 144 136 117
-1.398963 1.591298 -4.523563 143 135 116
-1.314949 1.598705 -4.402390 143 134 117
-1.342177 1.588415 -4.302419 142 133 116
-1.310777 1.591568 -4.266879 142 133 116
-1.384515 1.597619 -2.415118 168 167 165
-1.398337 1.593131 -2.305629 150 150 150
-1.314436 1.591373 -2.206525 151 151 151
-1.314862 1.593779 -2.102531 148 149 151
-1.315210 1.596022 -2.001941 159 160 164
-1.308230 1.599324 -1.923873 165 166 171
-1.305972 1.587225 -1.802242 146 147 152
-1.316012 1.596619 -1.705558 151 154 161
-1.311410 1.598446 -1.678190 151 155 165
