ply
format ascii 1.0
element vertex 1203
property float x
property float y
property float z
property uchar red
property uchar green
property uchar blue
end_header
3.190412 -1.512637 1.323601 84 80 81
3.190525 -1.513632 1.496001 86 82 83
3.190095 -1.513966 1.585983 81 80 78
3.190402 -1.514598 1.679312 86 84 85
3.192171 -1.515810 1.776671 130 131 135
3.189376 -1.515284 1.874133 144 153 162
3.187082 -1.514968 1.975154 151 165 174
3.196018 -1.513241 2.060911 154 168 177
3.186737 -1.510184 2.162883 157 170 178
3.196472 -1.508533 2.254616 156 169 177
3.186584 -1.505185 2.362487 144 154 163
3.189135 -1.500546 2.454016 137 138 142
3.126716 -1.421300 -4.724007 134 143 148
3.113162 -1.429897 -4.680246 135 144 149
3.115032 -1.442953 -4.572544 134 143 150
3.193040 -1.459485 -2.530218 105 99 99
3.176881 -1.428672 -2.481428 140 134 134
3.170936 -1.440619 -2.338191 112 113 117
3.190127 -1.424951 -2.214103 81 73 70
3.174126 -1.407588 -2.124923 125 126 130
3.163712 -1.407772 -2.089557 123 124 127
3.110562 -1.412590 1.891197 160 177 187
3.141643 -1.402850 1.980021 161 178 188
3.119222 -1.401017 2.053070 157 173 183
3.185256 -1.486608 2.148962 145 162 172
3.196204 -1.472072 2.296623 134 150 163
3.188126 -1.462484 2.376465 131 149 163
3.171599 -1.499899 2.469603 132 133 137
3.191398 -1.477513 2.578570 75 71 72
3.172776 -1.482663 2.625671 89 83 83
3.185888 -1.481528 2.734451 89 84 81
3.191349 -1.477309 2.839432 94 89 86
3.192261 -1.471191 2.943170 134 138 149
3.197176 -1.466367 3.054007 142 146 158
3.186390 -1.461997 3.189462 150 155 175
3.166932 -1.461279 3.206756 149 154 173
3.192785 -1.457375 3.309679 149 154 173
3.197233 -1.451798 3.431660 142 144 157
3.123951 -1.451524 3.511415 136 140 149
3.197381 -1.459919 3.600298 130 133 140
3.188363 -1.449151 3.775386 151 157 169
3.158511 -1.445078 3.815078 153 159 171
3.185916 -1.436909 3.925385 148 156 167
3.195967 -1.425334 4.055728 161 167 179
3.180679 -1.300378 -2.422462 112 104 101
3.196722 -1.313268 -2.396168 112 104 101
3.158368 -1.308370 -2.122042 116 117 121
3.106350 -1.338748 -2.066536 119 120 123
3.143252 -1.396141 2.026114 157 174 184
3.155413 -1.230114 -2.412534 112 104 101
3.142111 -1.205564 -2.389059 111 103 100
3.155663 -1.230736 -2.124810 116 117 121
3.164993 -1.207860 -2.090625 124 128 131
3.135347 -1.188154 -2.386334 111 103 100
3.108272 1.295308 -5.801836 172 168 159
3.125748 1.295008 -5.783727 171 167 158
3.109580 1.288742 -4.385721 108 107 103
3.105847 1.292129 2.352117 144 139 135
3.180178 1.297057 2.409588 140 135 131
3.133229 1.318039 -6.534699 152 147 141
3.121283 1.336200 -6.405424 156 151 145
3.114271 1.344229 -6.340617 159 155 146
3.104870 1.362230 -6.223263 161 157 148
3.111785 1.311672 -6.104365 173 169 160
3.111812 1.319113 -6.007184 174 170 161
3.101911 1.329292 -5.942686 175 171 162
3.150010 1.323219 -5.818082 145 142 136
3.116612 1.304258 -5.718435 171 167 158
3.104574 1.311565 -5.648986 171 167 158
3.106143 1.329937 -5.512282 172 168 159
3.114919 1.338535 -5.437292 173 169 160
3.102476 1.357479 -5.329866 173 169 160
3.108906 1.376849 -5.214565 172 168 157
3.101297 1.384744 -5.161827 173 169 160
3.102136 1.399843 -5.044289 172 168 159
3.180923 1.399305 -4.970223 169 165 156
3.107782 1.363928 -4.318521 139 136 129
3.113042 1.365124 -4.220828 138 133 127
3.100098 1.366589 -4.140189 136 131 125
3.110067 1.336786 -4.010446 159 150 141
3.120896 1.337029 -3.990829 158 149 140
3.112387 1.343094 -3.892383 157 148 139
3.103133 1.348625 -3.795291 156 147 140
3.109646 1.356418 -3.686169 154 145 136
3.109944 1.361473 -3.573847 155 146 137
3.111592 1.366990 -3.465284 154 145 138
3.102200 1.371779 -3.376725 150 143 135
3.100443 1.388139 -3.218359 150 141 134
3.105404 1.394575 -3.120338 147 140 132
3.103076 1.397754 -3.018999 147 140 132
3.122529 1.398190 -2.983758 147 140 132
3.116565 1.399786 -2.882814 146 139 131
3.105442 1.399031 -2.780893 146 139 129
3.110692 1.359601 -2.679841 123 120 113
3.182395 1.386467 -2.403399 53 46 38
3.100729 1.382935 -2.325990 137 127 118
3.109209 1.388185 -2.297807 160 150 141
3.120625 1.398942 -2.188969 171 158 152
3.172821 1.399952 -0.923521 106 101 97
3.167142 1.399343 -0.888382 111 103 100
3.155086 1.399572 -0.783864 118 111 105
3.196378 1.397171 -0.215282 148 137 131
3.177602 1.398899 -0.189160 147 136 130
3.199247 1.363706 -0.050898 152 138 135
3.147054 1.365529 0.012533 151 140 136
3.140923 1.378292 0.112650 158 144 141
3.140283 1.389109 0.202078 159 145 142
3.123596 1.398607 0.306409 158 144 141
3.188449 1.387453 0.640374 151 140 138
3.122943 1.393853 0.710777 152 141 139
3.147934 1.396624 0.803724 152 141 139
3.117286 1.391749 1.178348 132 122 120
3.171053 1.393994 1.203750 133 123 121
3.163277 1.391117 1.305193 144 134 132
3.177524 1.390167 1.403920 144 136 133
3.112139 1.383518 1.568404 134 127 119
3.150649 1.386756 1.614178 134 127 119
3.115519 1.383237 1.702089 132 125 117
3.115603 1.389102 1.859254 136 128 126
3.122384 1.384672 1.907672 136 131 128
3.103675 1.390985 2.005204 139 135 132
3.118418 1.382110 2.110255 141 137 134
3.125367 1.369742 2.213321 142 138 135
3.119720 1.352219 2.309982 138 134 131
3.140030 1.366046 2.407447 141 137 134
3.176563 1.392330 2.570575 117 114 105
3.121156 1.387718 2.606865 164 162 149
3.112692 1.366562 2.720921 178 180 159
3.114978 1.386295 2.813801 161 161 151
3.154764 1.393955 2.917681 150 150 142
3.145636 1.433684 -6.115698 139 138 133
3.121160 1.404537 -6.016773 161 157 148
3.113444 1.421112 -5.914868 162 158 149
3.106124 1.437101 -5.817094 164 160 151
3.105632 1.456692 -5.734009 164 160 151
3.117303 1.471323 -5.632798 163 160 151
3.108017 1.418270 -5.519075 122 118 115
3.127737 1.443462 -5.408840 83 78 72
3.118794 1.454041 -5.327345 85 81 70
3.160208 1.460736 -5.227226 65 60 54
3.149323 1.458314 -5.119024 93 88 84
3.119249 1.400518 -5.031493 171 167 158
3.100864 1.413093 -4.928259 164 160 151
3.120749 1.429279 -4.811497 155 150 144
3.151899 1.440900 -4.749871 166 163 158
3.103118 1.401870 -2.921636 146 139 129
3.191753 1.498430 -2.406326 81 72 65
3.125223 1.467000 -2.388097 47 40 34
3.121819 1.400299 -2.173124 170 157 151
3.123736 1.405388 -2.091794 161 150 143
3.102454 1.420243 -1.951733 145 134 128
3.105188 1.424860 -1.887029 131 120 114
3.104246 1.429629 -1.787692 119 109 104
3.128933 1.428297 -1.696181 117 108 103
3.123926 1.431359 -1.594427 114 106 103
3.148661 1.430770 -1.483645 106 97 112
3.192147 1.437056 -1.392693 74 73 71
3.141557 1.438232 -1.279125 55 52 48
3.116414 1.431791 -1.189304 85 80 76
3.113939 1.418689 -1.087021 99 94 88
3.119414 1.408944 -0.985791 104 99 95
3.105282 1.407289 -0.899209 112 105 99
3.121645 1.402117 -0.798496 117 110 104
3.113617 1.403950 -0.695559 125 118 112
3.106587 1.406200 -0.592829 149 139 130
3.103513 1.410129 -0.490249 156 146 137
3.139471 1.413204 -0.386284 157 146 140
3.137184 1.416643 -0.299691 155 146 139
3.163082 1.402404 -0.162176 148 137 131
3.129909 1.424153 -0.091664 148 139 132
3.124793 1.427282 0.012287 143 134 127
3.114779 1.428304 0.115463 144 135 126
3.197856 1.426800 0.203813 145 134 128
3.177720 1.432266 0.302072 147 136 130
3.152348 1.435812 0.400839 146 135 129
3.133387 1.442416 0.504281 147 136 130
3.103566 1.444648 0.605871 146 137 130
3.118961 1.443159 0.711487 147 136 130
3.102737 1.400890 0.852014 152 141 137
3.106917 1.401947 0.905855 152 141 139
3.135728 1.406282 1.008843 153 142 140
3.100598 1.409186 1.102988 154 143 141
3.145524 1.413870 1.203724 151 140 136
3.116698 1.419965 1.308440 152 143 138
3.151835 1.420422 1.412361 152 143 138
3.128535 1.423183 1.506701 153 143 141
3.106821 1.426893 1.605017 154 145 140
3.155996 1.425885 1.707127 153 143 141
3.129611 1.428144 1.809537 148 140 138
3.189640 1.423616 1.901886 153 145 142
3.152145 1.421837 2.003309 157 149 146
3.125033 1.424421 2.115737 159 154 150
3.109633 1.424922 2.213683 161 156 152
3.146267 1.409621 2.300991 162 157 153
3.106241 1.468387 2.411161 109 104 98
3.139065 1.433332 2.502210 81 77 70
3.196458 1.422885 2.641091 125 122 115
3.107752 1.402393 2.898980 150 150 142
3.100857 1.405912 2.923098 150 150 142
3.126531 1.407970 3.015173 150 150 142
3.186642 1.506045 -2.403817 42 37 31
3.138993 1.537923 -2.315290 110 105 99
3.137281 1.547725 -2.272775 111 106 100
3.174950 1.545354 -2.188013 116 109 101
3.100500 3.391611 -22.292820 184 192 179
3.142780 3.482306 -21.844819 47 48 40
3.167960 3.470054 -21.796386 45 46 40
3.104175 3.472497 -21.611355 107 104 95
3.164797 3.474827 -21.596103 108 105 96
3.109999 3.479363 -21.486207 119 115 106
3.120126 3.482334 -21.370971 131 128 119
3.110034 3.485189 -21.266396 131 131 121
3.101643 3.487276 -21.168671 129 126 117
3.110641 3.490220 -21.066596 117 114 105
3.102508 3.492160 -20.976884 126 122 113
3.104357 3.493042 -20.824283 113 109 100
3.114514 3.493280 -20.737810 115 111 102
3.107781 3.492694 -20.659817 120 115 109
3.116023 3.493560 -20.577445 111 106 100
3.106181 3.491171 -20.440320 114 110 101
3.139480 3.499079 -20.371100 118 115 106
3.114243 3.499671 -20.255517 119 116 107
3.104468 3.489366 -20.163695 130 126 115
3.197687 3.487818 -20.098435 106 106 98
3.104049 3.486830 -19.965537 128 125 118
3.114839 3.589602 -22.058248 65 69 62
3.118960 3.567633 -21.974345 58 63 56
3.161399 3.507846 -21.834518 61 62 56
3.110393 3.518602 -21.700805 43 42 38
3.119606 3.517965 -21.621710 91 91 83
3.115465 3.520370 -21.527725 97 96 88
3.109582 3.523701 -21.433847 99 99 89
3.106662 3.525437 -21.348811 117 114 105
3.109617 3.524019 -21.277453 111 111 101
3.167316 3.523802 -21.197843 105 98 90
3.113943 3.522164 -21.069672 105 101 92
3.150288 3.522240 -20.998617 100 97 88
3.113810 3.522655 -20.874191 108 105 96
3.113154 3.523265 -20.752927 105 102 93
3.175814 3.500224 -20.665479 121 117 108
3.104418 3.529005 -20.535257 102 99 90
3.115760 3.527634 -20.456932 99 96 89
3.110601 3.525409 -20.385832 111 106 100
3.128602 3.500197 -20.250382 123 120 111
3.126180 3.504612 -20.198151 116 112 103
3.112295 3.505755 -20.065614 133 129 120
3.103811 3.507166 -19.999932 126 122 113
3.107988 3.670080 -22.189115 64 71 64
3.130362 3.625408 -22.090705 66 69 62
3.103547 3.612624 -21.983054 66 73 65
3.103159 3.683205 -21.635386 56 61 57
3.100978 3.680416 -21.585511 30 29 24
3.103121 3.702426 -21.635982 57 59 53
3.116669 4.277513 -21.815245 141 147 143
3.114608 4.346320 -21.813118 145 147 142
3.131596 4.324224 -21.798590 145 150 146
3.109575 4.499168 -22.019802 78 99 94
3.123288 4.499763 -21.995990 106 127 122
3.171105 4.479482 -21.889520 137 147 146
3.115453 4.546131 -22.034789 71 92 87
3.156253 4.548490 -21.911209 137 147 146
3.173991 4.548564 -21.898181 137 147 146
3.147376 6.323702 -22.700456 114 114 106
3.117433 6.347678 -22.625038 116 116 108
3.119482 6.381170 -22.520354 118 118 110
3.132287 6.399976 -22.446767 119 119 111
3.108622 6.384823 -22.207514 118 116 104
3.182670 6.362081 -22.104667 109 111 100
3.110844 6.392359 -22.005098 113 114 106
3.118970 6.411482 -22.414589 120 120 112
3.114949 6.437916 -22.305716 122 122 112
3.113889 6.465144 -22.207915 124 124 114
3.113248 6.491478 -22.115114 126 126 116
3.177628 6.499430 -22.041487 127 124 115
3.156708 6.437615 -21.902932 117 117 107
3.123216 6.461843 -21.804460 122 122 114
3.104245 6.474708 -21.734151 124 124 114
3.103514 6.480275 -21.698261 127 125 116
3.108293 6.513428 -22.017185 130 127 118
3.111820 6.543534 -21.900498 135 132 123
3.108411 6.564258 -21.814593 136 133 124
3.107533 6.583770 -21.773740 137 137 127
3.298796 -1.694438 -2.226725 131 131 139
3.295031 -1.692547 -2.191508 129 129 137
3.295182 -1.674166 -2.041413 131 131 139
3.297837 -1.657242 -1.942239 139 139 147
3.299619 -1.639711 -1.825381 142 142 150
3.295856 -1.637849 -1.790182 142 142 150
3.297122 -1.619490 -1.621633 142 142 152
3.291300 -1.616827 -1.585856 142 142 152
3.274702 -1.609367 -1.496174 141 144 153
3.292239 -1.615158 -1.398614 141 141 151
3.244409 -1.600639 -1.058308 152 152 154
3.262043 -1.610472 -0.999564 148 148 150
3.260163 -1.532577 -6.022120 164 160 159
3.217308 -1.534414 -5.944347 166 162 161
3.219998 -1.538129 -5.851248 166 162 161
3.218147 -1.532894 -5.794853 168 164 163
3.248753 -1.539082 -5.697896 168 166 167
3.225317 -1.555805 -5.546704 139 144 147
3.222332 -1.557045 -5.452712 141 146 149
3.216943 -1.540036 -5.369692 134 138 141
3.214798 -1.540800 -5.272645 135 140 143
3.221742 -1.545983 -5.194569 135 140 143
3.211999 -1.593916 -5.093615 177 173 174
3.212755 -1.592545 -4.984624 177 173 174
3.299169 -1.592594 -4.899474 178 176 177
3.298368 -1.590999 -4.792946 179 177 178
3.298564 -1.589958 -4.690386 179 178 176
3.297925 -1.588505 -4.589171 180 178 179
3.294528 -1.585629 -4.486823 180 178 179
3.292197 -1.583341 -4.388334 180 180 182
3.294282 -1.583398 -4.297603 177 175 177
3.214682 -1.580803 -4.197386 207 202 199
3.228268 -1.579749 -4.096180 207 202 199
3.240982 -1.578401 -3.996365 205 200 197
3.252826 -1.576757 -3.897941 205 200 197
3.261012 -1.573348 -3.797962 204 199 196
3.286777 -1.572827 -3.692513 202 197 194
3.297379 -1.571074 -3.599765 170 168 173
3.247532 -1.568587 -3.499444 171 170 176
3.281233 -1.560587 -3.371147 191 189 194
3.254602 -1.556336 -3.288530 190 188 193
3.295824 -1.557158 -3.188084 186 183 190
3.280732 -1.555867 -3.098387 185 182 189
3.268798 -1.553292 -2.993771 181 179 185
3.260897 -1.552629 -2.893892 180 181 186
3.296765 -1.551228 -2.790230 179 178 186
3.287599 -1.550064 -2.691645 179 179 187
3.293392 -1.534314 -2.568915 150 149 155
3.274611 -1.501473 -2.482388 105 97 94
3.227565 -1.508015 -2.399198 103 93 91
3.219688 -1.503191 -2.291018 103 94 89
3.284338 -1.535244 -2.158374 148 149 154
3.268362 -1.551762 -2.098123 152 153 158
3.260579 -1.548451 -1.993397 144 144 152
3.296802 -1.548189 -1.892671 137 138 143
3.294151 -1.547499 -1.792134 130 131 136
3.291738 -1.531734 -1.692154 137 136 142
3.285524 -1.535128 -1.595853 136 135 142
3.278056 -1.538030 -1.498367 135 134 142
3.299960 -1.543002 -1.337105 137 137 145
3.296932 -1.544374 -1.294095 137 137 145
3.295603 -1.536431 -1.165618 162 158 159
3.284051 -1.535924 -1.091677 163 159 160
3.298598 -1.534758 -0.962144 164 160 161
3.286774 -1.534193 -0.886910 161 159 160
3.297989 -1.533285 -0.722382 158 154 155
3.295572 -1.534085 -0.691806 157 153 154
3.282195 -1.533850 -0.599644 136 134 139
3.297541 -1.534937 -0.427714 156 155 161
3.295413 -1.534815 -0.333137 151 150 156
3.296757 -1.533685 -0.249515 147 146 152
3.297819 -1.532395 -0.163577 142 143 148
3.299419 -1.533748 -0.060065 136 136 144
3.294880 -1.532681 0.045813 133 132 140
3.296443 -1.531505 0.140267 130 130 138
3.299507 -1.530872 0.237909 126 126 134
3.295695 -1.530081 0.353798 120 119 125
3.261817 -1.509694 0.467209 107 105 110
3.290163 -1.511679 0.569042 102 100 105
3.291399 -1.511934 0.699010 101 94 101
3.289978 -1.511294 0.765831 98 93 97
3.299765 -1.510113 0.892276 96 91 95
3.288454 -1.510382 0.978541 91 89 90
3.289255 -1.510561 1.054060 91 87 88
3.289438 -1.510505 1.131475 89 85 86
3.293389 -1.511723 1.295110 84 80 81
3.296909 -1.512903 1.381556 80 78 79
3.297662 -1.513045 1.469156 81 77 76
3.284708 -1.513264 1.574268 83 79 78
3.298074 -1.512906 1.652032 84 80 79
3.291141 -1.515541 1.767763 101 101 101
3.290833 -1.515354 1.867018 134 139 144
3.288472 -1.514396 1.968122 149 160 166
3.298340 -1.512360 2.054400 153 170 180
3.292176 -1.509883 2.158935 153 170 178
3.287143 -1.507823 2.267801 153 169 176
3.294354 -1.504428 2.360499 151 165 174
3.241745 -1.502487 2.407258 139 153 162
3.250475 -1.502455 2.510231 130 140 142
3.290778 -1.498819 -6.123147 152 151 149
3.241650 -1.410068 -2.523854 141 135 135
3.266557 -1.404824 -2.485081 109 104 101
3.265895 -1.410700 -2.394410 106 98 95
3.280919 -1.403932 -2.298906 106 98 95
3.244172 -1.413823 -2.189284 125 124 124
3.273331 -1.499605 1.339799 72 68 69
3.286551 -1.498890 1.788769 107 103 100
3.295076 -1.495532 1.867401 123 123 123
3.287154 -1.491470 1.961943 133 146 154
3.289563 -1.485676 2.040948 145 162 172
3.296276 -1.481170 2.125574 145 165 177
3.295596 -1.466706 2.290766 135 156 173
3.279475 -1.466604 2.306490 132 154 168
3.297706 -1.499418 2.452669 135 151 164
3.283837 -1.493867 2.564153 124 129 135
3.245678 -1.454630 2.656956 70 69 67
3.295430 -1.453665 2.733213 90 85 82
3.297141 -1.472424 2.835337 91 86 83
3.284894 -1.467018 2.961426 112 111 116
3.289653 -1.461431 3.072430 136 142 156
3.294729 -1.455723 3.187170 147 154 172
3.277809 -1.456001 3.207526 149 156 174
3.281372 -1.449601 3.324970 149 155 174
3.296575 -1.447108 3.458693 149 154 173
3.239966 -1.446532 3.518314 139 141 154
3.294669 -1.460378 3.600327 127 130 137
3.299153 -1.450333 3.754179 135 140 146
3.257657 -1.445671 3.819627 150 157 165
3.287915 -1.437710 3.932892 151 157 169
3.226576 -1.429455 4.014846 166 174 185
3.253165 -1.366614 -2.533384 144 140 139
3.214287 -1.304734 -2.460596 111 106 103
3.202497 -1.306714 -2.365378 111 103 100
3.259283 -1.334285 -2.292542 110 102 99
3.253064 -1.316268 -2.125263 130 134 137
3.204312 -1.255101 -2.458354 112 108 107
3.202222 -1.268046 -2.333928 111 103 100
3.232138 -1.297209 -2.297464 110 102 99
3.211160 1.292687 -5.690869 168 164 155
3.298869 1.290767 2.331195 125 121 118
3.244962 1.297676 2.459885 138 133 129
3.265814 1.298666 2.663575 115 113 101
3.215504 1.297232 2.707007 161 162 146
3.218790 1.329680 -6.428263 149 144 138
3.207469 1.348754 -6.307419 154 149 143
3.201303 1.357582 -6.247708 156 151 145
3.212587 1.376148 -6.125246 157 152 146
3.253780 1.305452 -6.013582 158 151 141
3.207092 1.313487 -5.982150 160 153 143
3.216871 1.325194 -5.808588 144 141 136
3.214358 1.344361 -5.726139 145 140 136
3.200338 1.301511 -5.625573 169 165 156
3.206401 1.309675 -5.543847 168 164 155
3.206832 1.328584 -5.411768 169 165 156
3.200208 1.338647 -5.358381 170 166 157
3.204381 1.358414 -5.239786 169 165 156
3.205910 1.376039 -5.121835 168 164 155
3.203068 1.390530 -5.002030 169 165 156
3.212770 1.399345 -4.941359 169 165 156
3.276281 1.399419 -4.883766 167 163 154
3.202729 1.355387 -4.316640 137 134 127
3.210436 1.358356 -4.222033 135 132 125
3.216433 1.360614 -4.128613 134 131 124
3.235342 1.333918 -4.073230 157 148 141
3.208471 1.337620 -3.985305 156 147 140
3.200086 1.344294 -3.886628 155 146 139
3.204732 1.351918 -3.772614 154 147 139
3.206156 1.358095 -3.658242 148 139 132
3.205828 1.363422 -3.544984 153 144 137
3.207643 1.369511 -3.436112 150 141 134
3.201425 1.376190 -3.350062 148 141 133
3.204749 1.382641 -3.246731 148 141 133
3.204794 1.387611 -3.143145 147 140 132
3.203117 1.391746 -3.040618 146 139 131
3.200393 1.391401 -2.915203 146 139 129
3.204374 1.389170 -2.893529 146 139 129
3.218199 1.363864 -2.785842 125 122 115
3.282385 1.352523 -2.415322 135 125 116
3.219433 1.362816 -2.384353 139 129 120
3.202489 1.377704 -2.292782 179 166 157
3.217631 1.389038 -2.199306 177 164 156
3.226820 1.398864 -2.085147 175 162 153
3.258548 1.399376 -1.995524 171 156 149
3.280262 1.396496 -1.882777 109 102 96
3.291367 1.398634 -1.220737 30 26 25
3.281636 1.396495 -1.183554 34 30 29
3.230994 1.399189 -1.070020 90 87 82
3.217588 1.397229 -0.998270 96 91 87
3.201485 1.395901 -0.891819 103 100 95
3.223687 1.392493 -0.788814 101 93 90
3.222453 1.397293 -0.683445 122 113 106
3.259275 1.398770 -0.596305 154 144 135
3.238962 1.391082 -0.281311 150 137 131
3.230739 1.399931 -0.192931 147 136 130
3.257646 1.365461 -0.057399 141 127 124
3.211607 1.369928 0.007751 152 141 137
3.266444 1.384910 0.104605 158 144 141
3.258737 1.397305 0.210202 159 145 142
3.286210 1.382962 0.550778 150 139 137
3.223768 1.385266 0.606276 151 140 138
3.236760 1.387716 0.707184 152 141 139
3.226011 1.398410 0.802712 151 140 138
3.214254 1.391873 1.224297 134 124 122
3.240682 1.388932 1.307745 142 132 130
3.248596 1.393185 1.491038 134 125 118
3.243246 1.392895 1.506583 134 125 116
3.204084 1.390045 1.613656 133 126 118
3.246281 1.398231 1.700893 133 126 120
3.203389 1.393871 1.805975 130 123 115
3.203271 1.359886 1.924137 132 128 125
3.233505 1.348475 2.013745 131 127 124
3.214994 1.353806 2.115575 132 128 125
3.238821 1.339042 2.206954 143 139 136
3.233998 1.320348 2.303278 130 126 123
3.244930 1.354868 2.408453 136 131 128
3.221396 1.398531 2.552857 96 92 83
3.212457 1.364366 2.607083 122 118 109
3.220078 1.379298 2.723584 107 104 96
3.213141 1.396007 2.978938 147 147 139
3.202117 1.403127 -6.136317 136 135 130
3.212484 1.422778 -6.018540 135 134 130
3.218680 1.413870 -5.914022 159 155 146
3.210048 1.430618 -5.816816 160 157 148
3.201985 1.446881 -5.723675 162 158 149
3.214662 1.463523 -5.626475 160 157 148
3.214268 1.471721 -5.513637 161 157 148
3.205229 1.414819 -5.423474 148 145 140
3.202691 1.439270 -5.320820 149 146 139
3.207319 1.447505 -5.232368 145 144 139
3.202609 1.449908 -5.134344 149 146 139
3.208899 1.474119 -5.000252 148 147 142
3.209543 1.409713 -4.900442 169 165 156
3.214265 1.427362 -4.800104 168 164 155
3.209821 1.448089 -4.725516 168 163 157
3.219000 1.455970 -4.670198 167 163 154
3.289482 1.464554 -4.563971 164 160 151
3.282091 1.445495 -4.490645 160 156 147
3.212157 1.488375 -2.417053 82 73 66
3.203628 1.499831 -2.391008 98 91 85
3.249208 1.496689 -2.285715 137 130 120
3.280768 1.491342 -2.195496 136 129 121
3.227132 1.400732 -2.051361 172 159 151
3.227749 1.404474 -1.983677 162 149 141
3.223479 1.407085 -1.896911 125 114 110
3.228405 1.414370 -1.796409 111 104 98
3.231295 1.420839 -1.694677 111 102 97
3.226146 1.423988 -1.590050 110 102 99
3.222999 1.427972 -1.485978 102 96 96
3.220705 1.431434 -1.399250 79 78 76
3.205569 1.430394 -1.292255 46 42 39
3.230488 1.410607 -1.192411 78 73 69
3.204397 1.405133 -1.083588 95 90 84
3.222943 1.401038 -0.613130 152 142 133
3.222075 1.401569 -0.595490 155 145 136
3.222796 1.407196 -0.489708 159 149 140
3.223500 1.412833 -0.383587 158 148 139
3.298018 1.401406 -0.209578 149 136 130
3.221238 1.400806 -0.179714 147 136 130
3.202982 1.405896 -0.090930 147 136 130
3.294599 1.418043 0.012565 144 133 127
3.270335 1.421154 0.106372 141 130 126
3.246928 1.424876 0.202392 147 136 131
3.228237 1.430842 0.302049 144 135 128
3.208126 1.436534 0.403695 145 134 128
3.236211 1.439437 0.508611 145 134 128
3.205158 1.441049 0.611942 146 135 129
3.243738 1.442588 0.709139 146 135 129
3.247901 1.400094 0.846209 151 140 136
3.259867 1.403379 0.903922 152 141 137
3.212620 1.406710 1.008834 152 141 139
3.252570 1.408302 1.103175 151 141 139
3.221637 1.412892 1.204356 147 136 132
3.267312 1.416162 1.309727 146 135 131
3.249279 1.420273 1.404792 149 140 135
3.210667 1.423063 1.512721 152 143 138
3.258930 1.420600 1.610237 152 142 140
3.234066 1.422822 1.711295 152 142 141
3.202795 1.422912 1.811274 147 139 137
3.267476 1.418995 1.906204 151 143 141
3.228517 1.416423 2.007560 154 149 146
3.285801 1.408270 2.103551 156 151 147
3.243557 1.404694 2.209122 158 153 149
3.235637 1.454263 2.302060 150 147 140
3.250130 1.437059 2.400889 152 149 142
3.237104 1.413985 2.507059 126 121 115
3.242399 1.429980 2.606582 140 140 132
3.292159 1.423006 2.741727 119 116 109
3.218301 1.404608 3.016187 148 148 140
3.211784 1.528353 -2.400194 40 35 29
3.201545 1.510093 -2.347093 128 121 115
3.206822 1.526647 -2.223571 121 114 106
3.203973 1.536201 -2.181050 118 111 103
3.279308 1.528271 -2.092255 121 114 104
3.203658 3.486139 -21.822629 48 49 43
3.263528 3.490223 -21.799509 59 61 56
3.258301 3.470398 -21.693005 104 103 95
3.205504 3.476123 -21.586905 107 104 95
3.211354 3.480133 -21.454017 119 116 107
3.219005 3.483100 -21.339986 124 121 112
3.207838 3.485408 -21.238476 123 119 110
3.216470 3.487528 -21.136374 103 100 93
3.203330 3.490861 -21.039114 114 111 102
3.213147 3.492074 -20.947916 122 119 110
3.201778 3.492244 -20.817280 107 104 97
3.209859 3.492538 -20.730872 107 102 96
3.201256 3.492004 -20.652939 106 101 95
3.219918 3.487783 -20.590002 115 110 103
3.215759 3.498350 -20.482590 112 109 100
3.204338 3.498402 -20.357821 134 131 122
3.284800 3.490459 -20.299335 140 140 130
3.232653 3.488852 -20.198085 130 130 122
3.209852 3.489321 -20.091465 123 123 115
3.202186 3.510183 -21.820368 61 63 58
3.283558 3.514625 -21.793066 63 69 67
3.217887 3.583079 -21.653775 42 47 44
3.215269 3.522347 -21.592639 98 98 90
3.230035 3.524395 -21.498175 98 99 91
3.203357 3.526169 -21.334503 100 97 88
3.205088 3.524567 -21.264166 105 98 90
3.204956 3.523946 -21.192937 99 96 89
3.203662 3.523300 -21.055560 93 93 81
3.204963 3.522005 -20.993275 111 108 99
3.207172 3.519671 -20.873745 101 98 89
3.220328 3.500395 -20.745678 108 107 97
3.209968 3.501251 -20.656035 115 111 102
3.200160 3.502020 -20.570370 120 116 107
3.207174 3.503216 -20.483998 109 105 96
3.212952 3.504769 -20.399688 96 92 83
3.295829 3.508778 -20.298126 123 120 111
3.201623 3.506955 -20.178964 116 112 103
3.277752 3.604461 -21.640009 60 69 66
3.209898 4.479628 -21.871313 137 147 146
3.212459 4.525475 -21.878376 137 147 146
3.217047 6.321270 -22.704863 114 114 106
3.207152 6.343391 -22.626839 114 115 107
3.203573 6.374572 -22.514017 117 117 109
3.285138 6.399839 -22.406889 116 116 108
3.203705 6.363448 -22.212305 114 111 102
3.283359 6.380600 -22.100609 108 110 99
3.224449 6.399142 -22.029137 112 112 102
3.201456 6.405184 -22.409222 118 118 110
3.236621 6.429296 -22.300132 119 119 111
3.212781 6.457864 -22.202876 121 121 111
3.207377 6.482433 -22.104961 125 125 115
3.229791 6.410322 -22.001635 113 113 103
3.200688 6.440125 -21.911491 116 116 106
3.201331 6.447718 -21.876712 117 117 107
3.202049 6.505803 -22.011037 129 126 117
3.218135 6.528754 -21.925552 131 128 119
3.211446 6.552518 -21.800596 134 131 122
3.207143 6.570301 -21.755657 135 132 123
3.312577 -1.700807 -2.300297 133 133 143
3.397758 -1.631751 -2.329413 159 159 167
3.398106 -1.631497 -2.295228 158 158 166
3.392911 -1.628320 -2.189672 153 153 161
3.387717 -1.625143 -2.084116 147 147 155
3.383388 -1.622496 -1.996153 143 143 153
3.380261 -1.620117 -1.891363 145 145 155
3.381259 -1.619327 -1.787880 143 143 151
3.399502 -1.607244 -1.655332 142 142 152
3.391890 -1.603542 -1.583148 140 143 152
3.386655 -1.600340 -1.476775 142 142 152
3.395796 -1.602597 -1.373795 140 140 150
3.311175 -1.601372 -1.022210 149 148 153
3.374230 -1.600025 -0.984537 146 146 148
3.389051 -1.618735 -0.893731 143 143 145
3.384648 -1.509527 -6.235812 148 146 147
3.339083 -1.511095 -6.156988 152 150 151
3.325604 -1.530549 -6.089689 164 160 159
3.327277 -1.534595 -5.992050 160 159 157
3.324522 -1.530556 -5.831512 164 163 161
3.393744 -1.532441 -5.799566 162 161 159
3.312167 -1.538965 -5.660383 167 166 164
3.303591 -1.558382 -5.544305 139 144 147
3.321601 -1.547188 -5.486688 170 168 169
3.322941 -1.549404 -5.398072 173 171 172
3.377667 -1.598630 -5.278374 176 172 171
3.347676 -1.598009 -5.193299 176 172 173
3.329974 -1.595591 -5.090990 178 174 175
3.313989 -1.593877 -4.993374 176 174 175
3.313345 -1.592431 -4.884723 178 176 177
3.314289 -1.591846 -4.780950 179 177 178
3.399114 -1.591011 -4.692788 179 177 178
3.379360 -1.587699 -4.599359 179 177 178
3.392629 -1.586673 -4.485620 178 178 180
3.390361 -1.585019 -4.386975 177 177 179
3.387258 -1.582953 -4.289676 176 175 180
3.383995 -1.580818 -4.194495 203 198 195
3.395506 -1.579362 -4.089132 204 199 196
3.330602 -1.578968 -3.986163 204 199 196
3.326729 -1.576241 -3.897572 205 200 197
3.351134 -1.574930 -3.786882 203 199 198
3.361467 -1.573178 -3.690833 199 198 196
3.370930 -1.571131 -3.596176 169 167 170
3.361981 -1.564706 -3.444301 190 188 193
3.372716 -1.561382 -3.393322 188 185 192
3.363517 -1.560607 -3.284930 186 183 190
3.395118 -1.558862 -3.192075 183 182 188
3.375072 -1.555817 -3.097115 181 180 185
3.364296 -1.554296 -2.991586 180 179 185
3.395725 -1.552715 -2.899521 179 179 187
3.387155 -1.552322 -2.797868 179 179 187
3.397145 -1.532814 -2.636076 152 151 157
3.326781 -1.533615 -2.590539 151 150 156
3.399845 -1.518206 -2.412615 137 140 145
3.351807 -1.520011 -2.387914 138 141 146
3.398385 -1.523435 -2.217900 148 149 153
3.344519 -1.531407 -2.189656 148 149 154
3.397321 -1.554426 -2.091952 157 158 163
3.384958 -1.552083 -1.999221 148 149 154
3.380217 -1.550697 -1.894139 138 140 145
3.392940 -1.529265 -1.725164 140 139 147
3.391008 -1.530155 -1.696896 139 138 146
3.385196 -1.533703 -1.597688 136 136 146
3.380243 -1.537672 -1.497788 137 137 145
3.399770 -1.542485 -1.301129 136 136 144
3.398656 -1.542899 -1.286292 136 136 144
3.398395 -1.535701 -1.138850 158 156 157
3.392813 -1.536016 -1.093246 158 156 157
3.377297 -1.535722 -0.986143 160 158 159
3.399222 -1.535085 -0.881883 162 158 159
3.383522 -1.533892 -0.788234 159 155 156
3.399943 -1.532569 -0.648205 155 151 152
3.392604 -1.533137 -0.584694 136 135 140
3.396243 -1.530512 -0.490971 158 155 164
3.397760 -1.533485 -0.381868 157 156 164
3.395625 -1.532759 -0.283510 150 149 157
3.398281 -1.531493 -0.196349 146 147 152
3.398120 -1.531499 -0.091836 142 143 148
3.399176 -1.531978 0.016320 132 133 138
3.396126 -1.530871 0.127312 130 130 138
3.394154 -1.530183 0.242168 128 127 135
3.395100 -1.530627 0.361668 120 119 125
3.352866 -1.509286 0.496096 106 104 109
3.396968 -1.511597 0.589286 101 99 104
3.388207 -1.512135 0.667928 101 96 102
3.389007 -1.511840 0.735441 100 93 100
3.389418 -1.510769 0.875551 93 91 94
3.389951 -1.510327 0.948657 92 90 91
3.392921 -1.510755 1.024918 92 88 89
3.396839 -1.510815 1.183275 88 84 85
3.397704 -1.510417 1.265446 86 82 83
3.386388 -1.510513 1.365097 84 80 81
3.394540 -1.512803 1.456753 82 78 79
3.397023 -1.513003 1.548166 80 76 75
3.388769 -1.514479 1.659763 80 76 75
3.390502 -1.514444 1.757200 96 92 91
3.391042 -1.513949 1.857050 125 126 128
3.388657 -1.512364 1.958200 138 145 151
3.387542 -1.511220 2.063554 149 166 174
3.398230 -1.508706 2.153135 153 172 179
3.393118 -1.505966 2.262096 150 167 175
3.386636 -1.502699 2.373629 144 164 173
3.351064 -1.501387 2.405245 137 155 167
3.389969 -1.502896 2.566936 134 151 159
3.365115 -1.500103 2.606137 133 144 150
3.333929 -1.496468 -6.198666 149 148 146
3.377282 -1.466663 -2.637498 122 118 117
3.386772 -1.482162 -2.572635 122 117 113
3.372931 -1.472509 -2.421608 119 120 124
3.327692 -1.475708 -2.398058 120 121 125
3.364525 -1.483121 -2.236986 129 129 131
3.326744 -1.498377 1.370083 72 68 69
3.390756 -1.498553 1.491154 68 66 67
3.399768 -1.499871 1.584216 68 67 66
3.399807 -1.498081 1.674712 74 70 69
3.393005 -1.493912 1.763659 98 94 93
3.391133 -1.491351 1.859029 106 105 103
3.398311 -1.486702 1.938500 114 116 115
3.389448 -1.481572 2.034827 135 153 163
3.393045 -1.475361 2.116632 152 171 185
3.398365 -1.469505 2.202124 144 170 183
3.397576 -1.487185 2.369971 142 166 176
3.395242 -1.498992 2.470450 140 158 170
3.396055 -1.492270 2.563598 140 158 172
3.392370 -1.483747 2.655452 120 130 139
3.311003 -1.465265 2.780496 91 86 83
3.361629 -1.457865 2.825449 95 90 87
3.391384 -1.460578 2.955430 100 95 92
3.382494 -1.455577 3.089226 127 126 131
3.365697 -1.455859 3.109472 132 138 152
3.385325 -1.448356 3.202000 142 149 168
3.396819 -1.443889 3.327050 150 157 176
3.388969 -1.438814 3.475975 154 162 183
3.373719 -1.439943 3.500167 153 161 182
3.395976 -1.461213 3.601468 144 152 165
3.388935 -1.449742 3.780957 119 122 129
3.360818 -1.446583 3.825302 132 137 143
3.304586 -1.440264 3.913993 148 154 166
3.390101 -1.391259 -2.186672 131 135 138
3.358285 -1.391933 2.858054 97 98 103
3.316521 1.291894 -5.586877 165 161 152
3.365955 1.296002 2.234144 121 117 114
3.332743 1.288758 2.307716 124 120 117
3.388797 1.295536 2.541374 135 130 126
3.336492 1.291360 2.669444 85 81 72
3.318118 1.336428 -6.401331 136 132 123
3.309981 1.345299 -6.338099 133 129 120
3.314178 1.361788 -6.202207 141 137 128
3.307809 1.370881 -6.145830 146 142 133
3.318176 1.389790 -6.029157 153 149 140
3.303674 1.307521 -5.955888 165 161 152
3.304054 1.316617 -5.865271 165 161 152
3.318044 1.344395 -5.700867 140 137 132
3.309751 1.360667 -5.615392 143 138 134
3.306948 1.301933 -5.526946 166 162 153
3.310959 1.309689 -5.445490 165 161 152
3.313215 1.330648 -5.322129 166 162 153
3.303839 1.339753 -5.267014 166 162 153
3.302965 1.357816 -5.145882 167 163 154
3.302192 1.375201 -5.029646 166 162 153
3.301656 1.392024 -4.918211 166 162 153
3.334240 1.392411 -4.890059 165 161 152
3.310017 1.350913 -4.325546 135 132 125
3.314084 1.353103 -4.227395 134 131 124
3.300282 1.355805 -4.147267 132 129 122
3.330004 1.335513 -4.071411 155 146 139
3.306044 1.341094 -3.986474 154 145 136
3.308930 1.348684 -3.867370 152 143 136
3.305456 1.353591 -3.745331 160 153 143
3.306290 1.360068 -3.629957 142 135 127
3.302990 1.364741 -3.513811 151 142 135
3.311322 1.373970 -3.409657 146 139 131
3.313257 1.380496 -3.302632 138 129 122
3.323713 1.380730 -3.283691 134 125 118
3.306982 1.383555 -3.191892 135 126 117
3.306535 1.384921 -3.062336 146 139 131
3.305493 1.382140 -2.911135 146 139 129
3.300463 1.367176 -2.858207 124 121 114
3.321621 1.350805 -2.417573 154 144 135
3.302228 1.363753 -2.356966 176 166 156
3.316971 1.373023 -2.295305 179 166 157
3.328920 1.382986 -2.196948 178 165 156
3.331742 1.389387 -2.093747 179 165 156
3.322452 1.391005 -1.985254 155 145 136
3.308011 1.389677 -1.892480 47 42 38
3.312819 1.396895 -1.789515 49 45 42
3.343279 1.396215 -1.693510 7 8 3
3.337976 1.399458 -1.585757 3 0 0
3.348165 1.389711 -1.499200 46 42 41
3.340843 1.392175 -1.390566 97 95 96
3.330418 1.392511 -1.299169 29 27 28
3.309149 1.389411 -1.188175 6 5 3
3.318394 1.380223 -1.082428 10 10 10
3.308000 1.380566 -0.991699 10 10 10
3.329128 1.375980 -0.886344 18 18 18
3.324681 1.378699 -0.795987 9 9 9
3.300238 1.395334 -0.633175 128 119 112
3.300446 1.397211 -0.597257 148 138 129
3.392044 1.391684 -0.343782 149 138 135
3.304552 1.392061 -0.299015 148 135 129
3.355896 1.377079 -0.074142 155 141 138
3.331576 1.378026 0.010487 154 140 137
3.332939 1.388763 0.100575 158 144 141
3.318912 1.398645 0.206349 158 144 141
3.311187 1.382041 0.528579 150 139 137
3.345250 1.381115 0.602641 150 139 137
3.319388 1.390681 0.706189 151 140 138
3.360382 1.397157 0.806469 150 139 137
3.391519 1.399619 0.907325 151 140 136
3.303027 1.393348 1.284087 139 129 127
3.350269 1.391494 1.306741 139 129 127
3.309993 1.398994 1.492032 134 125 118
3.304581 1.398723 1.507871 134 125 118
3.334137 1.388100 1.604921 145 137 134
3.387454 1.390127 1.714801 146 137 132
3.332940 1.377191 1.808509 148 139 134
3.381069 1.368703 1.914928 148 141 135
3.399587 1.395174 2.056387 135 130 127
3.321424 1.321204 2.103581 125 120 117
3.337180 1.308661 2.211536 122 118 115
3.338296 1.361659 2.302675 134 129 126
3.351199 1.343051 2.408569 132 127 124
3.336820 1.399170 2.539415 140 139 133
3.382170 1.379244 2.611974 130 125 119
3.300925 1.371171 2.810370 108 105 96
3.306029 1.406761 -5.924745 157 153 144
3.313122 1.422533 -5.812484 156 153 144
3.302096 1.438507 -5.717289 156 153 144
3.311380 1.454448 -5.617109 156 153 144
3.308921 1.462997 -5.504044 156 152 143
3.315816 1.466493 -5.443105 157 153 144
3.317142 1.410848 -5.324847 145 142 135
3.315889 1.426615 -5.201137 143 143 135
3.302392 1.436291 -5.124621 145 142 135
3.305569 1.452928 -5.017408 144 139 133
3.307327 1.460020 -4.939710 141 141 133
3.303885 1.409731 -4.814742 166 162 153
3.306711 1.427192 -4.715818 165 161 152
3.301371 1.448099 -4.643158 166 162 153
3.301164 1.462659 -4.546387 164 160 151
3.336072 1.471603 -4.403067 163 156 148
3.374949 1.472049 -4.300185 158 154 145
3.399775 1.473164 -4.214111 155 151 142
3.301341 1.465093 -2.441954 109 100 93
3.307929 1.472128 -2.357532 145 138 128
3.300966 1.477055 -2.289403 143 136 126
3.304644 1.490363 -2.143980 136 129 119
3.334442 1.499661 -2.034047 127 121 109
3.358026 1.498657 -1.983063 118 111 103
3.394059 1.495633 -1.897130 93 88 84
3.317095 1.400376 -1.755981 55 51 48
3.319608 1.404935 -1.686633 75 76 71
3.317220 1.408427 -1.597980 79 75 72
3.305941 1.409229 -1.489186 86 80 80
3.320256 1.402204 -1.386261 92 90 91
3.308857 1.402096 -1.295112 37 33 32
3.304611 1.400676 -0.561411 154 144 135
3.306992 1.405233 -0.489328 130 120 111
3.313409 1.412331 -0.398857 143 133 124
3.361453 1.400701 -0.227646 147 136 130
3.334395 1.404247 -0.186608 147 136 130
3.319118 1.410394 -0.095154 145 134 128
3.349142 1.418008 0.010308 143 132 126
3.324262 1.420810 0.104985 142 131 127
3.300244 1.424212 0.201870 145 134 128
3.337889 1.430003 0.303638 145 134 128
3.312610 1.433383 0.405716 145 134 128
3.362434 1.438456 0.500826 144 135 128
3.335753 1.441734 0.608297 144 135 128
3.368253 1.439227 0.703827 144 135 128
3.359241 1.400473 0.875814 151 140 136
3.320761 1.402721 0.912719 151 140 136
3.365461 1.404947 1.005543 151 140 138
3.334050 1.408745 1.104444 147 137 135
3.306201 1.414286 1.208272 138 127 125
3.366414 1.415952 1.300684 140 130 128
3.329347 1.418684 1.407239 150 139 135
3.304051 1.420088 1.501964 150 140 138
3.338324 1.417507 1.613228 151 142 137
3.327602 1.418308 1.700348 150 140 138
3.300297 1.419534 1.803536 146 138 135
3.348652 1.414778 1.911586 150 142 140
3.309850 1.412036 2.014134 154 146 143
3.364103 1.401585 2.107381 153 148 144
3.326024 1.455582 2.210650 149 144 138
3.344483 1.439340 2.310778 147 144 137
3.362588 1.422221 2.413256 143 140 133
3.304914 1.408012 2.510082 144 141 134
3.345087 1.435951 2.600292 138 135 126
3.338725 1.429711 2.705590 137 137 129
3.399332 1.425649 2.854283 116 113 106
3.305361 1.502075 -2.103254 130 123 113
3.302792 1.527227 -2.041451 119 112 104
3.366720 1.525126 -1.907052 96 91 85
3.375751 1.525328 -1.890691 94 89 83
3.304252 3.492377 -21.786354 59 61 56
3.310523 3.475766 -21.548346 116 116 108
3.309991 3.481703 -21.419084 120 120 112
3.391073 3.481598 -21.396501 114 115 107
3.356291 3.483948 -21.297889 108 109 101
3.362947 3.485586 -21.194907 98 98 88
3.348128 3.488207 -21.097733 106 103 94
3.370792 3.490765 -20.994538 104 101 92
3.301437 3.490478 -20.814161 103 98 92
3.332064 3.493415 -20.798370 107 102 96
3.306731 3.496534 -20.674276 117 114 105
3.314621 3.497179 -20.598276 115 113 101
3.307439 3.493600 -20.476943 123 120 111
3.390796 3.491701 -20.399035 117 117 109
3.300611 3.490595 -20.295998 127 127 119
3.301797 3.485735 -20.196086 135 135 127
3.304609 3.515317 -21.787929 61 67 65
3.301618 3.580194 -21.644358 56 65 62
3.311290 3.525960 -21.566514 102 105 98
3.308876 3.525470 -21.484321 104 107 100
3.304047 3.524664 -21.327967 89 86 77
3.301779 3.524269 -21.253798 95 93 81
3.317427 3.524387 -21.178230 96 94 82
3.321834 3.519139 -21.056441 84 84 74
3.315325 3.500589 -20.916830 109 109 99
3.386636 3.502983 -20.894817 101 101 91
3.391408 3.503644 -20.796514 104 99 93
3.394026 3.505054 -20.699321 106 101 95
3.301411 3.504321 -20.546076 114 110 101
3.306918 3.505175 -20.461762 130 126 117
3.306406 3.508393 -20.371752 117 113 104
3.314645 3.507862 -20.299304 120 117 108
3.316448 3.604594 -21.629556 59 68 65
3.395537 3.642288 -21.596192 62 67 63
3.319301 6.338033 -22.629091 113 113 105
3.311147 6.368142 -22.512165 114 114 106
3.304563 6.397565 -22.403267 116 116 108
3.360025 6.349068 -22.203304 104 106 97
3.306540 6.381920 -22.105431 108 110 99
3.311965 6.393711 -22.077950 109 111 100
3.313808 6.415395 -22.332598 117 117 109
3.307327 6.442587 -22.231684 119 119 109
3.362854 6.471973 -22.100053 120 120 110
3.313212 6.402898 -22.043240 109 111 100
3.309378 6.521136 -21.919353 126 126 116
3.303221 6.543450 -21.835406 131 128 119
3.312527 6.561782 -21.749739 133 131 119
3.411455 -1.600136 -5.253216 176 172 171
3.456140 -1.601637 -2.377479 159 159 167
3.432438 -1.609499 -2.295779 157 157 165
3.429270 -1.607076 -2.190155 154 154 162
3.426096 -1.604650 -2.084417 147 148 156
3.427930 -1.604316 -1.997979 143 144 154
3.430940 -1.604215 -1.894184 144 144 154
3.433928 -1.604101 -1.789939 143 143 151
3.433802 -1.602811 -1.684276 143 143 153
3.434966 -1.600126 -1.419265 138 141 150
3.406942 -1.607033 -1.394059 140 140 150
3.459344 -1.600034 -0.917267 142 142 144
3.478781 -1.600918 -0.888274 141 141 143
3.482921 -1.632520 -0.796249 139 139 139
3.445745 -1.502181 -6.291347 145 143 144
3.418295 -1.529914 -6.152240 159 158 156
3.416070 -1.532713 -6.047319 160 159 157
3.414876 -1.535914 -5.946905 159 157 158
3.460386 -1.529869 -5.862258 160 158 159
3.418272 -1.533781 -5.791132 162 161 159
3.420069 -1.537243 -5.695872 163 162 160
3.447550 -1.542859 -5.597531 166 165 163
3.471444 -1.546824 -5.496943 167 167 167
3.495516 -1.551083 -5.399962 171 173 172
3.426303 -1.599815 -5.237425 177 173 172
3.470969 -1.598838 -5.189862 176 174 175
3.454734 -1.598195 -5.090680 176 174 175
3.433493 -1.594826 -4.986560 177 175 176
3.418986 -1.594646 -4.893932 179 177 178
3.400710 -1.592363 -4.798094 179 177 178
3.413322 -1.590863 -4.677984 180 178 179
3.498345 -1.589602 -4.587688 178 178 180
3.478197 -1.586871 -4.496685 177 176 181
3.476101 -1.585819 -4.397717 177 176 181
3.487153 -1.584291 -4.285636 174 175 179
3.481226 -1.581437 -4.187250 198 195 196
3.476494 -1.579170 -4.092522 200 196 193
3.490211 -1.579271 -3.991006 201 197 196
3.497360 -1.576301 -3.885169 202 198 197
3.492845 -1.574295 -3.797520 201 197 196
3.437828 -1.573191 -3.688427 199 195 194
3.492023 -1.568765 -3.541123 186 184 189
3.455221 -1.567151 -3.487196 189 187 192
3.484103 -1.563457 -3.388211 184 183 191
3.464733 -1.561333 -3.289761 183 182 188
3.496101 -1.558889 -3.193270 179 180 185
3.477991 -1.557395 -3.098450 179 180 185
3.464936 -1.555334 -2.989249 176 177 182
3.448002 -1.554149 -2.898549 178 177 185
3.489631 -1.554077 -2.791426 177 177 187
3.478208 -1.535351 -2.688366 152 153 158
3.497689 -1.513713 -2.462938 135 139 145
3.497572 -1.581453 -2.399347 157 157 165
3.438658 -1.508270 -2.239515 147 148 152
3.461664 -1.561437 -2.194209 162 161 167
3.484063 -1.555906 -2.097359 157 156 162
3.475430 -1.553094 -1.986744 148 149 154
3.464005 -1.551570 -1.894213 143 144 149
3.497495 -1.525519 -1.759276 139 138 146
3.496482 -1.529281 -1.687591 139 138 146
3.490991 -1.532943 -1.585093 136 136 144
3.485354 -1.535745 -1.496229 137 137 145
3.479465 -1.539349 -1.391841 137 137 145
3.495404 -1.539200 -1.230441 137 136 141
3.488771 -1.538224 -1.198950 147 147 149
3.498165 -1.536109 -1.015942 158 156 157
3.493501 -1.535963 -0.984238 158 156 157
3.477413 -1.534675 -0.888741 159 157 158
3.498298 -1.532718 -0.779324 156 154 157
3.488338 -1.533109 -0.698578 156 152 153
3.472470 -1.532895 -0.585002 136 135 140
3.493897 -1.530622 -0.418878 157 157 165
3.498762 -1.529618 -0.333341 156 155 163
3.498744 -1.529036 -0.230868 148 149 156
3.498533 -1.530749 -0.109650 143 144 149
3.493769 -1.531348 -0.094775 142 143 148
3.494697 -1.531161 0.015492 130 131 136
3.496661 -1.531346 0.129693 130 130 138
3.497466 -1.531074 0.247608 126 126 134
3.496060 -1.529950 0.369056 119 118 124
3.495395 -1.529084 0.494908 112 111 117
3.499268 -1.513449 0.558620 103 101 106
3.497480 -1.511724 0.623131 102 98 103
3.492961 -1.512252 0.774247 99 92 99
3.492038 -1.510802 0.844668 94 92 95
3.496920 -1.510199 0.994169 92 90 91
3.498454 -1.509525 1.071744 91 87 88
3.490333 -1.510111 1.167204 89 84 88
3.495968 -1.510889 1.251787 87 83 84
3.498799 -1.510632 1.337558 86 82 83
3.492597 -1.512086 1.443321 83 79 80
3.490165 -1.515014 1.555047 80 76 75
3.493871 -1.515103 1.650729 79 75 74
3.495525 -1.514420 1.748261 84 80 77
3.495125 -1.512964 1.847643 122 120 121
3.496096 -1.511954 1.951143 134 138 141
3.498269 -1.511325 2.058911 144 153 160
3.494857 -1.508666 2.166360 151 169 177
3.490095 -1.505482 2.276364 150 169 176
3.485542 -1.502323 2.390193 143 162 170
3.467482 -1.501657 2.406245 141 160 169
3.492796 -1.504395 2.530269 135 157 168
3.448490 -1.501005 2.614921 136 153 161
3.487856 -1.500401 2.723799 122 131 136
3.489619 -1.497990 -6.366663 142 142 142
3.497722 -1.487179 -2.706004 123 119 118
3.476783 -1.458193 -2.631016 127 122 119
3.413927 -1.478721 -2.589947 124 119 116
3.451377 -1.412836 -2.251240 138 139 143
3.410363 -1.495824 1.459624 70 66 67
3.488927 -1.494494 1.570775 68 66 67
3.489244 -1.492186 1.661055 69 68 66
3.489980 -1.489933 1.754679 96 92 91
3.488297 -1.486797 1.849889 104 103 101
3.499304 -1.482779 1.931640 106 105 103
3.486172 -1.475638 2.024700 121 123 122
3.414299 -1.469595 2.186525 146 170 182
3.489602 -1.491043 2.202280 155 182 189
3.491527 -1.485319 2.353875 149 178 186
3.487584 -1.495647 2.482248 137 161 173
3.497530 -1.491536 2.583245 142 161 175
3.457253 -1.489073 2.613729 141 159 173
3.486896 -1.485895 2.702562 138 148 158
3.498812 -1.436686 2.888563 124 133 140
3.432978 -1.463034 2.923779 99 93 93
3.449403 -1.454436 3.008490 104 99 96
3.436580 -1.447597 3.140493 127 126 131
3.429699 -1.442724 3.283200 146 153 172
3.411529 -1.442702 3.303338 149 156 175
3.439924 -1.437311 3.409410 152 163 185
3.445758 -1.465407 3.508164 151 159 178
3.498635 -1.461388 3.600540 155 163 182
3.428395 -1.453495 3.711324 123 129 141
3.457442 -1.398497 -2.255147 139 140 144
3.469470 -1.388135 2.971220 95 98 103
3.459349 1.299623 -5.837157 135 131 122
3.408366 1.293536 -5.508116 162 158 149
3.427579 1.294293 -5.493750 161 157 148
3.443953 1.292347 -2.456879 83 78 72
3.471542 1.298066 -1.804224 135 131 128
3.440461 1.299116 -1.754991 114 110 107
3.415872 1.299150 -1.689868 109 109 107
3.402108 1.299565 -1.501677 109 109 109
3.404789 1.297524 -1.484426 110 110 110
3.430395 1.288993 -1.384330 120 116 115
3.498361 1.287364 -1.242611 153 146 138
3.404539 1.349856 -6.304353 147 144 137
3.417146 1.358673 -6.231639 148 145 138
3.406609 1.366303 -6.169320 148 145 138
3.409265 1.382366 -6.041590 151 146 140
3.415401 1.300486 -5.904431 152 148 139
3.410537 1.307806 -5.807720 130 126 117
3.404748 1.335452 -5.722615 139 135 131
3.414164 1.351478 -5.629425 141 138 133
3.403027 1.366833 -5.544492 141 138 133
3.414541 1.303149 -5.431366 163 159 150
3.402742 1.312280 -5.371816 164 160 151
3.415231 1.330678 -5.226929 163 159 150
3.410568 1.348280 -5.103615 163 159 150
3.400826 1.357191 -5.052517 164 160 151
3.402540 1.376839 -4.944513 164 160 151
3.400492 1.393826 -4.835468 164 160 151
3.451966 1.395855 -4.796979 163 159 150
3.418184 1.345547 -4.332700 134 131 124
3.405470 1.349636 -4.251766 132 129 122
3.405724 1.350907 -4.152610 132 127 121
3.412205 1.354614 -4.062406 130 125 119
3.404796 1.343786 -3.985512 153 144 135
3.413212 1.349926 -3.839854 150 143 135
3.406774 1.354288 -3.714912 160 153 143
3.417868 1.354536 -3.694814 144 137 127
3.404636 1.360148 -3.596651 141 134 126
3.410956 1.369168 -3.487867 146 139 131
3.400075 1.375272 -3.395785 142 133 126
3.405619 1.379719 -3.263621 118 109 100
3.407359 1.382604 -3.132158 134 127 119
3.424960 1.381766 -3.092008 143 136 126
3.400185 1.381892 -2.998253 144 137 127
3.416804 1.363839 -2.891120 127 123 112
3.407043 1.348055 -2.442089 173 163 154
3.419566 1.355428 -2.395372 180 167 158
3.400464 1.371821 -2.280883 179 166 157
3.405103 1.378044 -2.194484 178 165 156
3.436772 1.377975 -2.082418 179 165 156
3.415140 1.374168 -1.984194 114 105 98
3.400592 1.373044 -1.889360 57 53 50
3.415923 1.365792 -1.786546 48 44 43
3.407411 1.367008 -1.693906 33 32 30
3.419666 1.358493 -1.588733 16 14 15
3.407142 1.358209 -1.494928 47 43 42
3.408343 1.345464 -1.385998 111 109 110
3.401835 1.347466 -1.293943 65 63 64
3.416987 1.339915 -1.187201 47 46 44
3.418438 1.344929 -1.096133 17 15 16
3.418966 1.350508 -0.986318 51 51 51
3.419393 1.355165 -0.894547 20 20 20
3.404729 1.377322 -0.709919 108 104 101
3.408777 1.379787 -0.691753 121 116 113
3.451917 1.376345 -0.510819 142 131 125
3.444704 1.378084 -0.497391 142 131 125
3.428284 1.387283 -0.397594 171 161 159
3.414519 1.397926 -0.294688 150 137 131
3.425310 1.381623 -0.080435 157 143 140
3.403596 1.383485 0.005696 154 140 137
3.455269 1.395335 0.105201 159 145 142
3.447344 1.365397 0.527516 150 139 137
3.404524 1.380258 0.607519 149 138 134
3.451926 1.387914 0.706167 150 139 135
3.433958 1.395231 0.801291 150 139 137
3.470145 1.398656 0.904388 150 139 137
3.400896 1.386274 1.560462 145 137 134
3.474861 1.399271 1.664098 149 140 135
3.410991 1.393071 1.703195 147 138 133
3.497819 1.392496 1.802645 147 137 135
3.407241 1.372414 1.904790 147 140 134
3.489820 1.397577 2.089293 151 143 140
3.469428 1.397011 2.102019 152 144 141
3.422596 1.391256 2.206232 152 147 143
3.451198 1.352166 2.306636 129 124 121
3.488233 1.332266 2.401124 124 120 117
3.471722 1.399514 2.508430 140 137 130
3.405983 1.382377 2.602790 137 136 131
3.443190 1.341409 2.701404 112 107 101
3.416130 1.400096 -5.926277 152 147 141
3.417993 1.414483 -5.808507 153 150 141
3.402748 1.429547 -5.709576 154 150 141
3.406113 1.443462 -5.603054 153 150 141
3.413876 1.448357 -5.541831 152 149 140
